ply
format ascii 1.0
comment VCGLIB generated
element vertex 653
property float x
property float y
property float z
property float nx
property float ny
property float nz
property uchar red
property uchar green
property uchar blue
property uchar alpha
element face 0
property list uchar int vertex_indices
end_header
-0.00401868 -0.235502 -6.71327 0.946014 0.0777653 0.314657 121 119 111 255 
-0.002041 -0.235833 -6.71715 0.884894 -0.188882 0.425777 119 118 112 255 
-0.0027389 -0.234449 -6.71509 0.767194 -0.274993 0.579476 138 135 125 255 
-0.000900849 -0.235214 -6.72427 0.934977 0.138409 0.32659 117 117 114 255 
0.000972272 -0.235151 -6.7278 0.919816 0.133759 0.368846 113 113 109 255 
0.00254958 -0.234973 -6.73247 0.778962 -0.122595 0.61497 120 115 110 255 
0.003234 -0.233789 -6.73485 0.825278 -0.0912134 0.557312 104 97 91 255 
0.00464964 -0.23523 -6.73628 0.90179 0.07247 0.426054 114 107 101 255 
0.00546891 -0.233515 -6.73963 0.938675 -0.160499 0.305171 129 125 116 255 
0.00433837 -0.23462 -6.73841 0.792547 -0.461291 0.398848 119 115 108 255 
0.00639477 -0.234806 -6.74414 0.827656 -0.470706 0.305648 125 122 117 255 
0.00735865 -0.233878 -6.74677 0.825347 -0.555108 0.103235 103 99 91 255 
0.00629301 -0.233522 -6.75436 0.831124 -0.451212 0.325024 112 110 103 255 
0.00843768 -0.233805 -6.76247 0.915545 -0.18992 0.354553 134 131 121 255 
0.00988535 -0.232954 -6.7645 0.941548 -0.22659 0.249289 141 139 128 255 
0.0128918 -0.232737 -6.76538 0.822321 -0.481046 0.303946 121 121 112 255 
0.0145131 -0.23342 -6.76868 0.876561 -0.370812 0.306821 113 113 104 255 
0.0155884 -0.232349 -6.77176 0.896187 -0.31747 0.30994 118 118 112 255 
0.0166528 -0.233336 -6.77662 0.832372 -0.00199422 0.554213 120 119 118 255 
0.0178124 -0.232354 -6.77887 0.902438 -0.203097 0.379943 141 140 136 255 
0.0211929 -0.231601 -6.7843 0.919014 -0.133547 0.370917 133 129 123 255 
0.0216531 -0.233114 -6.7867 0.927992 -0.186926 0.322318 136 134 129 255 
0.0392987 -0.233529 -6.81093 0.730981 -0.66172 0.166714 117 120 118 255 
0.0384363 -0.232128 -6.81592 0.822179 -0.465533 0.327566 112 113 113 255 
0.0410248 -0.232413 -6.82298 0.67161 -0.222894 0.706582 83 80 74 255 
0.0444134 -0.231025 -6.83173 0.902545 -0.265597 0.338925 112 111 100 255 
0.0435357 -0.231448 -6.83533 0.506637 0.754727 0.416781 115 114 106 255 
0.15205 -0.244368 -6.86111 0.643672 -0.0951745 0.75936 14 19 12 255 
0.154835 -0.244948 -6.86454 0.807849 -0.120733 0.576891 26 31 18 255 
0.157803 -0.244665 -6.86833 0.443306 0.217087 0.869686 23 30 18 255 
0.159849 -0.244579 -6.86998 0.619379 0.680543 0.391447 18 23 13 255 
-0.036826 -0.240316 -6.64032 0.634848 -0.0985904 0.766321 111 108 98 255 
-0.0382445 -0.238855 -6.63912 0.628978 -0.126055 0.767136 85 83 73 255 
-0.0352976 -0.239302 -6.64185 0.688068 -0.105541 0.71793 114 110 101 255 
-0.0320126 -0.239745 -6.64547 0.660574 -0.010143 0.750693 147 145 137 255 
-0.0286575 -0.239834 -6.64807 0.559973 -0.021287 0.828237 143 141 136 255 
-0.0268985 -0.241177 -6.64898 0.559483 -0.0298588 0.828304 139 137 129 255 
-0.0245766 -0.239821 -6.65088 0.505113 0.00553997 0.863036 174 171 159 255 
-0.0227077 -0.240948 -6.6537 0.776484 -0.0572106 0.627534 178 174 159 255 
-0.0213533 -0.239867 -6.65535 0.835274 0.0835931 0.543443 172 168 155 255 
-0.0200872 -0.240991 -6.65665 0.881103 -0.051392 0.470123 172 168 154 255 
-0.014202 -0.238823 -6.69032 0.90622 -0.175076 0.384855 125 123 120 255 
-0.0137084 -0.2376 -6.68757 0.928533 -0.361585 0.0841636 128 129 129 255 
-0.0130283 -0.237792 -6.6922 0.910846 -0.207704 0.356678 123 123 121 255 
-0.0120069 -0.239359 -6.69394 0.972289 -0.211693 0.0992022 145 145 133 255 
-0.00349403 -0.236845 -6.71538 0.901184 -0.142716 0.409267 133 133 130 255 
-0.00303218 -0.238295 -6.71747 0.929682 -0.214473 0.299489 86 87 90 255 
0.000341692 -0.238047 -6.72236 0.941348 0.289652 0.173106 73 73 73 255 
0.000107906 -0.236478 -6.72636 0.933335 0.0729678 0.351513 116 116 116 255 
0.000117302 -0.236513 -6.72657 0.93789 0.067781 0.340246 114 113 113 255 
-0.000410543 -0.236747 -6.72655 0.846173 -0.148059 0.511928 104 104 105 255 
-0.0010228 -0.237816 -6.72959 0.764662 -0.633622 0.117538 42 42 43 255 
0.00185707 -0.236605 -6.7304 0.812728 0.215022 0.541515 115 116 114 255 
0.00449376 -0.237815 -6.73142 0.906466 0.390608 0.160451 90 88 87 255 
0.00389792 -0.237241 -6.73704 0.910125 -0.287618 0.298241 96 92 89 255 
0.00469269 -0.236047 -6.74055 0.931224 -0.207545 0.299579 124 122 117 255 
0.00467486 -0.236516 -6.74218 0.733876 -0.607092 0.304739 107 107 105 255 
0.00462673 -0.236494 -6.74241 0.737466 -0.603774 0.302657 102 101 98 255 
0.00589472 -0.236929 -6.74718 0.931658 -0.202655 0.301569 96 96 92 255 
0.00706474 -0.235569 -6.75429 0.818848 -0.446761 0.360405 127 128 125 255 
0.00531643 -0.235697 -6.75326 0.898138 -0.128027 0.420662 121 122 117 255 
0.00975539 -0.235609 -6.76372 0.843107 -0.346224 0.411462 108 105 99 255 
0.0133315 -0.23444 -6.76624 0.880772 -0.360351 0.307225 141 140 129 255 
0.0179005 -0.235075 -6.77801 0.852297 -0.286252 0.437778 113 114 112 255 
0.0212115 -0.235998 -6.78643 0.938343 -0.0738676 0.337723 133 138 136 255 
0.0223018 -0.234721 -6.78829 0.90272 -0.235428 0.360097 132 132 129 255 
0.037836 -0.234601 -6.8084 0.825658 -0.402501 0.395325 133 136 133 255 
0.0384637 -0.236448 -6.8101 0.820675 -0.470889 0.32366 138 139 138 255 
0.0398292 -0.235399 -6.81271 0.84409 -0.486822 0.224757 124 127 127 255 
0.0418548 -0.234845 -6.81498 0.876183 -0.403302 0.263914 115 118 118 255 
0.0444496 -0.234007 -6.83145 0.686353 0.60177 0.408402 121 123 117 255 
-0.0386017 -0.241266 -6.63897 0.432731 -0.0443971 0.900429 83 81 72 255 
-0.0355641 -0.24169 -6.64138 0.725199 -0.0856088 0.683197 114 111 102 255 
-0.034084 -0.242987 -6.6426 0.78457 -0.0500053 0.618021 110 108 101 255 
-0.0339577 -0.240768 -6.64268 0.713465 -0.0213745 0.700365 116 114 106 255 
-0.0325642 -0.241973 -6.64456 0.709701 -0.0537741 0.702447 137 136 128 255 
-0.0308548 -0.240917 -6.64633 0.661785 -0.0484784 0.748125 163 161 154 255 
-0.0251541 -0.242428 -6.65133 0.734708 -0.162343 0.658672 165 162 151 255 
-0.0236008 -0.241581 -6.65277 0.747333 -0.0624726 0.661506 182 178 164 255 
-0.0215026 -0.242255 -6.65472 0.790888 -0.0749644 0.607353 176 171 156 255 
-0.0150783 -0.239873 -6.68813 0.90706 -0.257092 0.333385 126 124 120 255 
-0.014047 -0.241421 -6.68969 0.936822 -0.213715 0.27693 150 146 138 255 
-0.013676 -0.240185 -6.69235 0.884175 -0.298596 0.35927 148 146 137 255 
-0.00321975 -0.240197 -6.71509 0.780588 0.323922 0.534562 29 30 34 255 
-0.00151081 -0.238971 -6.71999 0.743593 0.388944 0.543868 42 42 45 255 
-0.00201034 -0.24081 -6.71772 0.777449 0.402938 0.482923 16 17 20 255 
0.00166809 -0.240575 -6.72606 0.75184 0.430775 0.49917 15 16 17 255 
-5.6248e-05 -0.239345 -6.72592 0.976372 0.189333 0.104164 19 20 22 255 
0.00151189 -0.240545 -6.72706 0.768789 0.412253 0.488887 15 16 17 255 
0.00188712 -0.240366 -6.73217 0.810238 -0.0716538 0.581704 25 25 24 255 
0.00258507 -0.239505 -6.7368 0.767428 -0.465764 0.440589 28 28 27 255 
0.00412718 -0.239148 -6.73993 0.772031 -0.560282 0.300085 35 35 33 255 
0.00385736 -0.238945 -6.74015 0.751083 -0.575082 0.324275 38 38 37 255 
0.00427659 -0.237754 -6.74738 0.901367 -0.313747 0.298498 53 53 50 255 
0.00356451 -0.23908 -6.74964 0.667362 -0.714572 0.209796 20 21 21 255 
0.00732062 -0.237246 -6.75569 0.825562 -0.445498 0.346379 109 110 108 255 
0.00625427 -0.237836 -6.75916 0.987919 -0.135543 0.0751259 81 83 82 255 
0.00779391 -0.237702 -6.76202 0.565702 -0.717067 0.407181 119 118 118 255 
0.00977592 -0.237629 -6.76417 0.830341 -0.353034 0.431163 123 121 120 255 
0.0122726 -0.237042 -6.76551 0.860579 -0.408244 0.304532 112 109 103 255 
0.0143078 -0.237976 -6.77081 0.875371 -0.345474 0.338193 128 124 115 255 
0.0171122 -0.237624 -6.77791 0.842951 -0.24152 0.480731 133 132 123 255 
0.018464 -0.236681 -6.77997 0.85172 -0.275693 0.445607 109 111 106 255 
0.0195016 -0.238538 -6.78241 0.86638 -0.221934 0.44736 112 111 105 255 
0.0200068 -0.237226 -6.7852 0.893816 -0.14796 0.423321 120 123 120 255 
0.0221323 -0.237444 -6.78832 0.91824 -0.0545326 0.392252 134 137 135 255 
0.0231543 -0.236142 -6.79044 0.935252 -0.00483707 0.353949 130 131 127 255 
0.0387057 -0.238242 -6.8122 0.808702 -0.570331 0.143958 134 134 132 255 
0.0404691 -0.23729 -6.81436 0.656196 -0.650212 0.382925 138 138 137 255 
0.042066 -0.236862 -6.81707 0.942824 -0.310844 0.120246 116 120 121 255 
0.0439312 -0.237509 -6.82564 0.936296 0.224712 0.269917 119 120 118 255 
0.0431393 -0.235559 -6.82977 0.93323 0.182983 0.309192 122 124 118 255 
0.0443407 -0.236862 -6.8324 0.914619 0.210935 0.344934 119 121 123 255 
-0.0388856 -0.243804 -6.63964 0.686749 0.0219401 0.726564 83 81 73 255 
-0.0356878 -0.244098 -6.64132 0.674767 -0.0355426 0.737174 116 113 105 255 
-0.0372004 -0.24275 -6.64073 0.660327 -0.0509393 0.749248 112 109 100 255 
-0.0327433 -0.244345 -6.64455 0.710881 -0.0936018 0.697056 135 133 126 255 
-0.0296919 -0.244671 -6.6479 0.705593 -0.11853 0.698634 150 149 144 255 
-0.0270303 -0.243663 -6.64904 0.587973 -0.0841979 0.804486 137 135 129 255 
-0.028049 -0.243815 -6.64846 0.528337 -0.0776443 0.845477 138 136 131 255 
-0.0256951 -0.244601 -6.65107 0.706752 -0.158223 0.689541 156 153 143 255 
-0.0241094 -0.243878 -6.65259 0.745204 -0.096789 0.659775 176 173 160 255 
-0.0228947 -0.245087 -6.65576 0.83745 -0.207147 0.505734 174 169 155 255 
-0.0216014 -0.244296 -6.6562 0.855113 -0.197265 0.479445 173 169 156 255 
-0.0208787 -0.245735 -6.65702 0.86231 -0.225009 0.453645 171 167 153 255 
-0.00543065 -0.241614 -6.7143 0.901653 -0.0779194 0.425384 13 14 17 255 
-0.00306827 -0.242524 -6.71603 0.785076 0.421833 0.453556 11 11 12 255 
-0.00321933 -0.242922 -6.72031 0.767836 0.59406 0.239834 7 8 7 255 
-0.00301992 -0.24289 -6.7196 0.775403 0.585275 0.237073 7 8 7 255 
-0.00118014 -0.241406 -6.72135 0.763352 0.552023 0.335506 8 9 10 255 
-0.00175129 -0.24184 -6.72658 0.752183 0.607605 0.255024 7 8 7 255 
0.000600792 -0.242216 -6.7272 0.827339 0.259664 0.498081 7 8 7 255 
0.00172308 -0.241518 -6.7302 0.797725 0.262093 0.543085 12 13 13 255 
0.00187807 -0.242026 -6.7315 0.808699 -0.442693 0.387336 11 11 11 255 
0.00097987 -0.240077 -6.73509 0.729138 -0.511895 0.454226 24 24 23 255 
0.00307331 -0.241526 -6.73622 0.653284 -0.587911 0.477055 12 13 13 255 
0.00266333 -0.241498 -6.73833 0.813671 -0.500153 0.296287 7 8 8 255 
0.00548187 -0.240836 -6.73967 0.81276 -0.50057 0.29808 14 16 15 255 
0.00429694 -0.239453 -6.74876 0.777359 -0.548547 0.307911 26 27 26 255 
0.0055228 -0.239634 -6.7618 0.565031 -0.690113 0.452199 32 33 33 255 
0.00768334 -0.239676 -6.76326 0.818912 -0.435941 0.373281 52 52 53 255 
0.010683 -0.240784 -6.76517 0.867707 -0.243268 0.43348 63 63 62 255 
0.0125164 -0.240975 -6.7689 0.888717 -0.200487 0.412295 109 108 106 255 
0.0117085 -0.239543 -6.76714 0.914714 -0.0836816 0.395343 123 121 119 255 
0.0159795 -0.238776 -6.77735 0.920351 0.0440786 0.388602 141 139 129 255 
0.0185019 -0.239463 -6.78052 0.879789 -0.322498 0.349237 136 133 124 255 
0.0168329 -0.240425 -6.77912 0.877151 -0.280611 0.389698 131 129 118 255 
0.0189729 -0.240945 -6.7826 0.906968 -0.272584 0.321102 139 134 125 255 
0.0215181 -0.23998 -6.78905 0.911334 -0.257863 0.320899 113 114 109 255 
0.0229128 -0.238872 -6.7913 0.898867 -0.0943916 0.427934 133 134 131 255 
0.040508 -0.239202 -6.81638 0.828759 -0.46093 0.317336 128 129 128 255 
0.0414105 -0.241113 -6.81778 0.847902 -0.470788 0.243763 121 123 126 255 
0.0423391 -0.239969 -6.82087 0.991991 -0.030863 0.122482 110 113 112 255 
0.0427575 -0.238864 -6.82379 0.979043 0.12058 0.164118 115 116 115 255 
0.043831 -0.240502 -6.82665 0.803405 0.00187865 0.59543 108 110 111 255 
0.0440243 -0.238678 -6.8296 0.879785 0.219916 0.421445 116 117 119 255 
0.045178 -0.2403 -6.83206 0.784435 0.507433 0.356613 90 91 93 255 
0.166933 -0.252358 -6.88895 0.881645 0.372762 0.289397 26 34 20 255 
-0.0416789 -0.246185 -6.6384 0.303886 0.0173565 0.95255 53 53 50 255 
-0.0373616 -0.245094 -6.64074 0.68546 -0.0507831 0.726337 112 110 101 255 
-0.0389523 -0.246176 -6.63918 0.235329 -0.0469135 0.970783 80 79 71 255 
-0.0358597 -0.246493 -6.64126 0.694147 -0.0503457 0.71807 115 113 105 255 
-0.0342276 -0.245363 -6.64295 0.759175 -0.0754298 0.646501 116 114 107 255 
-0.0332361 -0.246753 -6.6442 0.701449 -0.0386171 0.711673 128 127 119 255 
-0.0284427 -0.246135 -6.64853 0.524156 -0.0506464 0.850115 126 125 119 255 
-0.0261497 -0.247026 -6.65038 0.613971 -0.113884 0.78107 145 144 134 255 
-0.0243219 -0.246129 -6.6518 0.625055 -0.132295 0.769288 170 167 156 255 
-0.0235478 -0.247128 -6.655 0.811689 -0.188347 0.55289 174 169 157 255 
0.00587555 -0.244781 -6.72747 0.893279 0.33248 0.302504 8 8 8 255 
0.00211682 -0.243926 -6.7321 0.813546 -0.500622 0.295839 10 10 9 255 
0.00271006 -0.244542 -6.73077 0.817983 -0.493092 0.29625 9 10 9 255 
0.00068435 -0.24514 -6.73084 0.848821 -0.477193 0.227574 7 7 6 255 
0.00177841 -0.24367 -6.73512 0.781938 -0.546979 0.298977 7 7 8 255 
0.00379858 -0.242348 -6.74358 0.818838 -0.487538 0.303003 9 10 10 255 
0.00364751 -0.24213 -6.74529 0.751912 -0.58405 0.305801 10 11 10 255 
0.00205973 -0.243484 -6.75041 0.621419 -0.659967 0.422235 9 10 9 255 
0.0116299 -0.242288 -6.76632 0.923325 -0.0834354 0.374845 46 46 44 255 
0.0104849 -0.243476 -6.76495 0.92467 -0.0832885 0.371549 27 26 24 255 
0.0123671 -0.243689 -6.76859 0.925883 -0.0721808 0.370852 38 38 36 255 
0.0152101 -0.241351 -6.7773 0.819809 -0.386356 0.422661 105 103 99 255 
0.0178504 -0.242066 -6.78021 0.882218 -0.24363 0.402909 115 111 103 255 
0.0177628 -0.242089 -6.77987 0.875421 -0.244871 0.416744 113 109 101 255 
0.0205093 -0.241119 -6.78605 0.892703 -0.267514 0.362654 128 124 115 255 
0.0208019 -0.242696 -6.78887 0.901745 -0.292051 0.318688 132 127 119 255 
0.0426631 -0.242642 -6.8123 0.912632 -0.312979 0.262959 128 127 123 255 
0.0429201 -0.243196 -6.81847 0.986029 0.094934 0.136873 104 108 108 255 
0.0437565 -0.241475 -6.82379 0.972114 -0.118752 0.202217 104 109 109 255 
0.0440431 -0.243182 -6.82641 0.964395 -0.19443 0.179275 85 91 89 255 
0.0439909 -0.241531 -6.82988 0.864082 -0.105259 0.492222 94 95 95 255 
0.0438686 -0.242753 -6.83321 0.929442 -0.101344 0.354779 112 112 108 255 
0.168428 -0.253218 -6.8913 0.738939 0.186779 0.647366 27 35 21 255 
-0.0375547 -0.24748 -6.64074 0.687983 -0.0556817 0.723587 111 110 101 255 
-0.0390799 -0.248538 -6.64036 0.586947 -0.00729087 0.809592 83 83 75 255 
-0.0361272 -0.248779 -6.64156 0.722653 -0.0468678 0.68962 116 114 105 255 
-0.0317611 -0.248174 -6.64578 0.697902 -0.0765781 0.712088 159 158 150 255 
-0.0301904 -0.249288 -6.64811 0.733606 -0.121949 0.668543 155 154 148 255 
-0.0278647 -0.248057 -6.64903 0.575395 -0.0709496 0.814792 132 131 124 255 
-0.0263976 -0.249431 -6.6502 0.637329 -0.0667918 0.767692 147 145 136 255 
-0.0238829 -0.249683 -6.65227 0.633794 -0.118817 0.764322 173 170 158 255 
-0.0222166 -0.248584 -6.65653 0.85658 -0.249948 0.451438 170 166 153 255 
0.0130653 -0.245071 -6.7711 0.920669 -0.0793891 0.382185 30 30 28 255 
0.0157791 -0.245738 -6.7772 0.853466 -0.216284 0.474148 56 54 53 255 
0.0170897 -0.244656 -6.77881 0.878352 -0.150136 0.453825 123 124 121 255 
0.0184602 -0.243744 -6.78108 0.838597 -0.296618 0.456917 109 106 100 255 
0.0196217 -0.243708 -6.78643 0.896349 -0.251213 0.365309 134 129 119 255 
0.0214938 -0.244406 -6.78972 0.874114 -0.276383 0.399422 136 133 123 255 
0.0227241 -0.243374 -6.79213 0.888248 -0.330167 0.319382 114 112 105 255 
0.0377653 -0.24457 -6.81635 0.37037 0.753313 0.543457 137 134 128 255 
0.0418481 -0.24405 -6.8158 0.827394 0.0369975 0.560402 130 130 126 255 
0.0432789 -0.244675 -6.82361 0.9882 0.0724531 0.134948 89 93 89 255 
0.0444492 -0.244395 -6.82896 0.915244 -0.326885 0.235529 108 109 103 255 
0.168825 -0.255768 -6.8914 0.671802 0.118953 0.731118 19 23 15 255 
-0.0408945 -0.249714 -6.63908 0.168507 -0.0139435 0.985602 58 58 53 255 
-0.0376482 -0.249866 -6.6408 0.702562 -0.0274151 0.711094 113 112 102 255 
-0.039173 -0.250933 -6.64032 0.610719 0.00906315 0.791795 85 85 77 255 
-0.036173 -0.251124 -6.64159 0.727086 -0.0427132 0.685216 117 116 106 255 
-0.0346445 -0.250042 -6.64287 0.695124 -0.0380045 0.717885 119 118 109 255 
-0.0332819 -0.251246 -6.64446 0.779116 0.029157 0.626201 125 124 116 255 
-0.0281698 -0.250569 -6.64876 0.530435 -0.043479 0.84661 140 139 133 255 
-0.0266414 -0.251878 -6.65003 0.583473 -0.0690471 0.809192 145 143 135 255 
-0.0250951 -0.250758 -6.65246 0.820966 0.0207195 0.570601 164 161 152 255 
-0.0238649 -0.251969 -6.65333 0.853887 0.19476 0.482645 170 166 157 255 
0.00174266 -0.245619 -6.76973 0.470819 -0.845236 0.252796 7 6 6 255 
0.0223827 -0.248749 -6.75411 0.949921 -0.206352 0.234667 14 13 12 255 
0.00982772 -0.246687 -6.77017 0.771935 -0.553324 0.312969 16 16 14 255 
0.0116131 -0.24614 -6.77124 0.770258 -0.445667 0.456161 14 13 12 255 
0.016596 -0.24721 -6.77909 0.862856 -0.230461 0.449852 52 51 47 255 
0.0221913 -0.246049 -6.79106 0.850717 -0.307057 0.42661 136 134 122 255 
0.042944 -0.246566 -6.81882 0.985671 0.0976133 0.137568 88 91 91 255 
0.0431582 -0.246288 -6.82669 0.98819 -0.0874535 0.125831 114 113 105 255 
0.0450457 -0.245811 -6.83268 0.936933 0.298401 0.181973 82 83 81 255 
0.0468989 -0.24626 -6.83535 0.903058 -0.331533 0.273079 88 90 91 255 
0.169086 -0.258283 -6.89172 0.790464 -0.501761 0.351286 11 14 10 255 
0.172115 -0.259045 -6.89377 -0.275539 -0.327275 0.903864 26 37 20 255 
-0.0418531 -0.253475 -6.63836 0.286314 0.0307679 0.957642 58 57 53 255 
-0.037667 -0.252258 -6.64088 0.700646 -0.00537476 0.713489 113 112 102 255 
-0.0361619 -0.253494 -6.64177 0.750499 -0.0199151 0.660571 116 115 106 255 
-0.0347784 -0.252322 -6.64367 0.733466 -0.0219584 0.679371 119 118 109 255 
-0.0333506 -0.253618 -6.64443 0.779882 0.0271178 0.625339 126 125 117 255 
-0.0267968 -0.254279 -6.6501 0.590052 -0.0639401 0.804829 144 143 135 255 
-0.0249764 -0.253243 -6.65144 0.666745 -0.018303 0.745061 167 164 154 255 
-0.02356 -0.254313 -6.65526 0.861432 0.161537 0.481499 170 165 155 255 
-0.02356 -0.254313 -6.65526 0.861432 0.161537 0.481499 170 165 155 255 
-0.0235609 -0.254312 -6.65528 0.861329 0.166666 0.479933 170 166 155 255 
0.0408789 -0.249453 -6.82364 0.797268 0.287687 0.53066 127 125 121 255 
0.0427909 -0.250384 -6.82319 0.703012 0.236457 0.670718 79 77 80 255 
0.0440335 -0.247867 -6.83595 0.702464 0.460936 0.542293 74 78 82 255 
0.0440335 -0.247867 -6.83595 0.702464 0.460936 0.542293 74 78 82 255 
0.0479415 -0.247814 -6.84284 0.777042 0.328848 0.536717 10 11 13 255 
0.168575 -0.260032 -6.89511 0.814228 -0.531037 0.234589 19 26 15 255 
-0.0376537 -0.254667 -6.6407 0.703686 0.0013008 0.71051 116 115 105 255 
-0.0391369 -0.255854 -6.63945 0.60797 0.0521679 0.792245 91 90 81 255 
-0.0360478 -0.256191 -6.64209 0.743098 -0.0287544 0.668564 119 118 110 255 
-0.0346126 -0.255094 -6.64316 0.784258 -0.0247098 0.619942 115 114 106 255 
-0.0333093 -0.256353 -6.64494 0.734575 -0.0330348 0.677722 139 137 129 255 
-0.0268515 -0.25678 -6.65037 0.639218 -0.0295597 0.768457 147 145 138 255 
-0.0230863 -0.256761 -6.65503 0.872009 0.12025 0.47449 168 166 157 255 
0.0233419 -0.252196 -6.79572 0.780962 -0.301023 0.547251 110 107 101 255 
0.0436637 -0.252971 -6.82319 0.702875 0.237202 0.670598 44 44 50 255 
0.0469359 -0.25262 -6.827 0.74771 0.00744659 0.663983 12 14 17 255 
0.0450943 -0.251061 -6.82899 0.554187 0.508891 0.658716 30 31 37 255 
0.0448502 -0.25072 -6.83214 0.390446 0.735326 0.553938 24 27 30 255 
0.04556 -0.250902 -6.8324 0.452666 0.699417 0.553091 16 18 21 255 
0.0450365 -0.250901 -6.83206 0.427663 0.714926 0.55316 20 22 27 255 
0.0448502 -0.25072 -6.83214 0.390446 0.735326 0.553938 24 27 30 255 
0.04556 -0.250902 -6.8324 0.452666 0.699417 0.553091 16 18 21 255 
0.0450455 -0.250866 -6.83266 0.658941 0.519093 0.54437 17 19 24 255 
0.0448502 -0.25072 -6.83214 0.390446 0.735326 0.553938 24 27 30 255 
0.04556 -0.250902 -6.8324 0.452666 0.699417 0.553091 16 18 21 255 
0.0461884 -0.250955 -6.83644 0.673716 0.514727 0.530248 9 9 12 255 
0.0479101 -0.25049 -6.83819 0.489356 0.656373 0.574199 10 10 12 255 
0.0491169 -0.250563 -6.84309 0.760792 0.362518 0.538309 8 8 7 255 
-0.0376402 -0.257061 -6.64069 0.707704 0.00385647 0.706499 117 116 107 255 
-0.0391498 -0.258148 -6.63932 0.652438 0.00412232 0.757831 93 92 83 255 
-0.0361765 -0.258548 -6.64213 0.73471 -0.0394423 0.677234 120 119 111 255 
-0.0347238 -0.25745 -6.64353 0.749562 -0.0398757 0.660732 122 120 113 255 
-0.0337697 -0.258866 -6.64438 0.784119 -0.0409542 0.619258 125 123 117 255 
-0.0285945 -0.257846 -6.64909 0.618109 -0.0522717 0.784353 144 142 138 255 
0.021094 -0.253944 -6.7897 0.677487 -0.41029 0.610469 68 67 57 255 
0.0226326 -0.253413 -6.79319 0.897119 -0.0707145 0.436093 115 114 109 255 
0.0229829 -0.254714 -6.79581 0.805121 -0.085179 0.586962 112 110 106 255 
0.0381746 -0.255487 -6.81114 0.936951 -0.0122354 0.349247 139 138 131 255 
0.0454707 -0.253911 -6.82552 0.727036 0.151693 0.669633 13 14 19 255 
0.0469609 -0.255196 -6.827 0.747731 0.00724825 0.663962 9 10 10 255 
0.0453526 -0.253114 -6.83475 0.672372 0.504081 0.54205 8 8 9 255 
0.0486387 -0.253223 -6.83976 0.720419 0.434009 0.540956 5 6 5 255 
0.048628 -0.253258 -6.83911 0.716719 0.439327 0.541578 7 8 7 255 
0.0483303 -0.252809 -6.84256 0.750291 0.398572 0.52745 8 8 7 255 
-0.0416522 -0.260769 -6.63572 0.891147 0.00245447 0.453708 56 57 51 255 
-0.0407363 -0.25939 -6.6377 0.836674 0.125859 0.533044 62 62 55 255 
-0.0377872 -0.259431 -6.64065 0.715376 -0.0450277 0.697288 118 117 107 255 
-0.0363903 -0.260903 -6.64203 0.725893 -0.0676081 0.684476 120 119 111 255 
-0.0364303 -0.260771 -6.64191 0.721864 -0.0625837 0.6892 120 119 111 255 
-0.0348679 -0.259886 -6.6431 0.784783 -0.0565483 0.617185 118 117 110 255 
-0.0250494 -0.260808 -6.65264 0.740298 -0.0349631 0.671369 163 161 153 255 
0.0193301 -0.255918 -6.79063 0.565489 -0.490803 0.662823 38 37 30 255 
0.0207529 -0.257331 -6.79201 0.748951 -0.0735523 0.658531 37 37 31 255 
0.0216414 -0.255924 -6.79394 0.784703 -0.0856544 0.613925 56 56 50 255 
0.0227573 -0.256288 -6.79372 0.711572 -0.3376 0.616191 80 79 68 255 
0.0381461 -0.258344 -6.81109 0.936829 -0.0122859 0.349571 137 135 130 255 
0.0495546 -0.258533 -6.82046 0.847562 -0.148439 0.509513 8 8 8 255 
0.0469853 -0.257768 -6.82701 0.74755 0.00704186 0.664168 8 8 7 255 
0.0454842 -0.255366 -6.83694 0.726636 0.620904 0.294071 7 7 7 255 
-0.039858 -0.262862 -6.63863 0.804972 -0.0586893 0.590403 74 73 66 255 
-0.0380135 -0.261808 -6.64047 0.69515 -0.0693049 0.715516 117 117 107 255 
-0.0366564 -0.263257 -6.64189 0.713827 -0.0831384 0.695369 120 119 110 255 
-0.0350904 -0.262271 -6.64302 0.783784 -0.0849117 0.615202 117 116 109 255 
-0.0338378 -0.261339 -6.64443 0.783591 -0.0596976 0.618402 127 126 120 255 
-0.0289113 -0.262628 -6.64951 0.660586 -0.0747435 0.74702 147 146 142 255 
-0.0255588 -0.263169 -6.6516 0.672753 -0.161708 0.721979 164 162 152 255 
0.0220962 -0.25873 -6.79356 0.746653 -0.202999 0.633483 74 74 62 255 
0.0237611 -0.257848 -6.79572 0.624822 -0.355159 0.695313 114 112 99 255 
0.0244836 -0.259762 -6.79687 0.672852 -0.198555 0.712633 130 128 116 255 
0.0355544 -0.260011 -6.80285 0.623759 -0.0245876 0.78123 152 148 138 255 
0.0384018 -0.26084 -6.81064 0.828993 0.0276068 0.558577 147 142 134 255 
0.0369178 -0.259632 -6.80938 0.860414 -0.0107373 0.509482 142 140 133 255 
0.0483893 -0.259232 -6.82682 0.852284 -0.104565 0.512521 8 8 8 255 
-0.0399962 -0.265224 -6.63826 0.782864 -0.0529568 0.619935 80 79 71 255 
-0.0382959 -0.264169 -6.64046 0.687951 -0.0824093 0.721063 115 114 104 255 
-0.0370467 -0.265613 -6.64148 0.693586 -0.122411 0.709897 119 118 109 255 
-0.035396 -0.264717 -6.64267 0.779833 -0.14079 0.60995 115 115 107 255 
-0.0333237 -0.264834 -6.64539 0.711438 -0.156245 0.685159 151 150 142 255 
-0.0291525 -0.265033 -6.6489 0.506493 -0.0783933 0.858673 144 143 138 255 
-0.0274859 -0.264025 -6.65024 0.571444 -0.118536 0.812035 144 142 136 255 
-0.0258842 -0.265451 -6.65166 0.693419 -0.0754738 0.716571 162 160 151 255 
0.0225402 -0.260568 -6.79475 0.734139 -0.189412 0.652046 95 94 83 255 
0.0351277 -0.262498 -6.80306 0.519506 -0.0877365 0.849951 145 143 134 255 
0.035634 -0.26102 -6.80784 0.859169 -0.0357814 0.51044 148 143 133 255 
0.0371551 -0.262041 -6.81249 0.781213 0.0617471 0.621203 148 144 134 255 
0.0434266 -0.262844 -6.82187 0.750154 -0.0899091 0.655123 23 24 29 255 
0.0433136 -0.262761 -6.82207 0.751368 -0.0564802 0.657462 25 25 30 255 
0.0433136 -0.262761 -6.82207 0.751368 -0.0564802 0.657462 25 25 30 255 
-0.0412889 -0.266354 -6.63589 0.890936 -0.000720009 0.454128 58 58 52 255 
-0.0401769 -0.267678 -6.63884 0.755347 -0.0846046 0.64984 79 78 70 255 
-0.0386999 -0.26657 -6.64026 0.691402 -0.0973867 0.715877 112 110 101 255 
-0.0358029 -0.267051 -6.64259 0.753391 -0.127873 0.64502 120 118 110 255 
-0.0298334 -0.266168 -6.64931 0.660584 -0.096442 0.744532 146 145 140 255 
-0.0275233 -0.26652 -6.65086 0.660294 -0.0376526 0.750063 145 144 137 255 
-0.0245077 -0.266714 -6.65378 0.809882 0.198603 0.551949 172 168 154 255 
0.0347145 -0.265035 -6.80257 0.550581 -0.0970852 0.829117 144 141 132 255 
0.0358402 -0.263587 -6.80808 0.85983 -0.049683 0.508157 145 141 131 255 
0.0373413 -0.264716 -6.81082 0.856884 -0.101266 0.505465 142 138 130 255 
0.0386564 -0.263187 -6.81493 0.858317 -0.081686 0.506576 133 131 126 255 
0.0435075 -0.265189 -6.82276 0.749121 -0.106264 0.653855 15 16 19 255 
-0.0389841 -0.269006 -6.6399 0.754651 -0.0772245 0.651565 107 105 97 255 
-0.0373655 -0.267981 -6.64123 0.682224 -0.0961443 0.724795 122 120 111 255 
-0.0359887 -0.269313 -6.64276 0.732729 -0.104702 0.672418 119 117 109 255 
-0.0344662 -0.268327 -6.64458 0.739458 -0.0550653 0.670947 130 129 121 255 
-0.0314279 -0.2685 -6.64738 0.660853 -0.101074 0.743678 160 160 154 255 
-0.0299726 -0.269851 -6.6488 0.4749 -0.0507887 0.878573 146 145 141 255 
-0.0279647 -0.268734 -6.65057 0.659903 -0.0404967 0.750259 143 142 136 255 
-0.0264268 -0.269988 -6.65198 0.775094 0.0345433 0.6309 155 153 146 255 
-0.0277392 -0.269808 -6.65079 0.637301 -0.0243058 0.770231 142 141 136 255 
-0.0251799 -0.268772 -6.65323 0.796337 0.180385 0.577329 169 165 154 255 
-0.023969 -0.269035 -6.65499 0.840615 0.127516 0.526408 174 168 154 255 
0.00693046 -0.263921 -6.79537 0.490021 0.0134786 0.871607 13 12 13 255 
0.00919151 -0.263869 -6.79719 0.413861 -0.0232303 0.910044 16 16 14 255 
0.0115752 -0.263681 -6.79902 -0.215127 -0.0922762 0.972217 54 53 45 255 
0.0309309 -0.266778 -6.80047 0.394384 -0.0592636 0.917033 122 119 114 255 
0.0327155 -0.265969 -6.80126 0.670277 -0.158877 0.724905 131 129 122 255 
0.034287 -0.267552 -6.80206 0.457712 -0.0683214 0.886472 140 137 129 255 
0.0402057 -0.267464 -6.8174 0.752582 -0.0622054 0.655554 110 107 108 255 
-0.0391567 -0.271408 -6.63992 0.754752 -0.073651 0.651863 99 98 90 255 
-0.0376091 -0.270347 -6.64128 0.679733 -0.070056 0.730106 117 115 106 255 
-0.0347964 -0.270643 -6.64472 0.729743 -0.0467675 0.68212 126 125 116 255 
-0.028903 -0.272067 -6.64973 0.555303 -0.0427389 0.830549 135 136 131 255 
-0.0265213 -0.272368 -6.6523 0.777272 -0.0373777 0.628053 161 158 150 255 
-0.0251773 -0.271342 -6.6524 0.63452 -0.0381339 0.771965 171 167 156 255 
0.00539775 -0.266772 -6.79467 0.861283 0.074893 0.502577 10 10 9 255 
0.0319493 -0.268218 -6.80095 0.67694 -0.173147 0.715383 126 124 117 255 
0.033061 -0.269752 -6.80206 0.748165 -0.150525 0.646213 130 128 121 255 
0.0399534 -0.270027 -6.81666 0.859136 -0.043357 0.509907 117 115 116 255 
0.0415337 -0.268812 -6.82011 0.751699 -0.0722403 0.655538 70 70 73 255 
0.0428482 -0.270214 -6.82179 0.754503 -0.0698693 0.652566 53 55 59 255 
-0.037789 -0.27268 -6.64159 0.72401 -0.0564469 0.687476 113 111 102 255 
-0.0364813 -0.273966 -6.64306 0.730239 -0.0344998 0.68232 118 116 106 255 
-0.0349755 -0.272869 -6.64433 0.742443 -0.026544 0.669384 125 124 115 255 
-0.0283028 -0.273533 -6.65068 0.606409 -0.0621285 0.792722 140 138 134 255 
-0.0267428 -0.274962 -6.65244 0.775885 -0.0940363 0.623827 161 158 149 255 
-0.0253361 -0.274033 -6.65257 0.656094 -0.0946888 0.748715 171 167 156 255 
0.00277973 -0.268129 -6.79621 0.786652 0.180296 0.590484 10 10 10 255 
0.0341757 -0.271341 -6.80204 0.818059 -0.295087 0.493664 134 134 127 255 
0.0412168 -0.271442 -6.81942 0.75234 -0.0345539 0.657868 82 81 84 255 
-0.041084 -0.274942 -6.6379 0.624383 -0.105223 0.773999 74 73 65 255 
-0.0380387 -0.275068 -6.64124 0.696228 -0.0582401 0.715454 118 116 107 255 
-0.039618 -0.276185 -6.64001 0.673552 -0.0375119 0.738187 101 99 91 255 
-0.0365632 -0.276332 -6.64251 0.66976 -0.0206322 0.742291 119 117 109 255 
-0.0350887 -0.275223 -6.64433 0.742657 -0.0456878 0.668112 124 123 115 255 
-0.0339254 -0.276735 -6.64597 0.677638 -0.0353858 0.734544 149 148 141 255 
-0.0286432 -0.275985 -6.65025 0.566542 -0.0790331 0.820234 143 141 136 255 
-0.0256154 -0.276337 -6.65257 0.68151 -0.1372 0.718832 170 166 156 255 
0.00124954 -0.270374 -6.79948 0.67116 -0.167539 0.722132 10 10 10 255 
0.00343543 -0.272199 -6.79772 0.67092 -0.155153 0.725117 13 14 13 255 
0.0411052 -0.273966 -6.81979 0.855772 0.0458623 0.515316 70 72 74 255 
-0.0411867 -0.277516 -6.63886 0.733284 0.00200354 0.679919 68 67 61 255 
-0.038135 -0.277454 -6.64122 0.680384 -0.02801 0.732321 118 116 108 255 
-0.0396835 -0.278706 -6.64002 0.697167 0.00779763 0.716867 101 100 92 255 
-0.0355045 -0.277861 -6.64422 0.733033 -0.0220064 0.679837 122 120 112 255 
-0.0340501 -0.279114 -6.64593 0.670964 -0.0263617 0.741022 149 148 141 255 
-0.0270839 -0.277414 -6.65202 0.736801 -0.142679 0.660884 154 153 144 255 
-0.0244838 -0.278239 -6.65343 0.759567 -0.378421 0.529014 172 169 159 255 
-0.0409791 -0.279766 -6.63886 0.706 -0.0537632 0.706168 63 62 56 255 
-0.0396491 -0.280995 -6.63978 0.746857 -0.0132547 0.664852 88 87 78 255 
-0.0364467 -0.281186 -6.64301 0.768011 -0.00385617 0.640425 105 103 95 255 
-0.0365661 -0.280952 -6.64334 0.674418 0.0123407 0.738247 109 107 99 255 
-0.0267644 -0.28127 -6.65347 0.765418 -0.175045 0.619269 158 157 151 255 
0.000955634 -0.275268 -6.80039 0.658402 -0.223892 0.718595 13 13 13 255 
-0.043416 -0.28214 -6.63761 0.273995 -0.0271529 0.961348 54 54 49 255 
-0.0410181 -0.282106 -6.63921 0.757989 0.0785643 0.647518 63 63 55 255 
-0.0410789 -0.282155 -6.63851 0.467119 -0.0167914 0.884035 62 62 55 255 
-0.0396741 -0.283347 -6.6401 0.722218 -0.00693218 0.691631 95 95 86 255 
-0.0380587 -0.282227 -6.64197 0.672606 0.0328407 0.739272 103 102 92 255 
-0.0365921 -0.28351 -6.64344 0.730336 -0.0420028 0.681795 106 104 96 255 
-0.0351361 -0.282422 -6.64481 0.767048 -0.00629316 0.641559 113 112 105 255 
-0.0341686 -0.281475 -6.64645 0.566071 -0.038988 0.823434 144 143 136 255 
-0.0289381 -0.283132 -6.65008 0.562006 -0.0671957 0.824399 123 120 113 255 
-0.0283841 -0.281976 -6.65037 0.393907 -0.0808024 0.915592 131 129 122 255 
-0.0271984 -0.2836 -6.65248 0.732898 -0.314576 0.603244 134 131 123 255 
-0.0257818 -0.282702 -6.65475 0.849309 -0.331278 0.411009 147 150 149 255 
0.00415809 -0.277332 -6.79995 0.351618 -0.140544 0.925533 14 14 14 255 
0.0514707 -0.282148 -6.84105 0.732244 -0.464552 0.498006 14 15 14 255 
-0.0411057 -0.2845 -6.639 0.668461 -0.0334409 0.742995 69 68 62 255 
-0.0382033 -0.284609 -6.64206 0.666248 -0.0406299 0.744622 107 106 97 255 
-0.0352704 -0.284771 -6.64478 0.772027 -0.0149639 0.635413 108 107 99 255 
-0.0291522 -0.285737 -6.65036 0.587757 -0.112466 0.801182 130 124 112 255 
-0.0265113 -0.285196 -6.65373 0.762722 -0.318982 0.562588 141 135 126 255 
0.04988 -0.284677 -6.83751 0.732264 -0.46455 0.497979 10 11 11 255 
0.049875 -0.284686 -6.83724 0.731266 -0.466397 0.497719 9 10 10 255 
0.0496655 -0.282715 -6.83829 0.733393 -0.463814 0.497003 8 9 9 255 
0.0491944 -0.284423 -6.84189 0.766955 -0.455498 0.451997 9 9 9 255 
-0.0436926 -0.28674 -6.63732 0.280915 -0.0402832 0.958887 65 64 61 255 
-0.041381 -0.286729 -6.63878 0.458341 -0.0814406 0.885037 70 69 62 255 
-0.0398098 -0.285697 -6.64031 0.755547 -0.030109 0.654402 96 95 87 255 
-0.0384215 -0.286991 -6.64196 0.662286 -0.0614171 0.74673 112 112 103 255 
-0.0367397 -0.285903 -6.64325 0.753424 -0.0558236 0.655161 109 108 100 255 
-0.0354853 -0.287361 -6.64503 0.764884 -0.107055 0.635209 120 120 112 255 
-0.0344929 -0.286258 -6.64667 0.570555 -0.117296 0.81284 137 136 128 255 
-0.0295348 -0.288182 -6.65047 0.645836 -0.0996777 0.756942 139 132 120 255 
-0.027868 -0.287188 -6.65317 0.758346 -0.225279 0.611687 143 135 123 255 
0.0554564 -0.288031 -6.82994 0.887939 -0.285229 0.360845 9 10 9 255 
0.0544084 -0.28619 -6.83173 0.832345 -0.422194 0.359102 9 10 10 255 
-0.0415532 -0.289198 -6.63892 0.817988 0.228521 0.527896 60 61 55 255 
-0.040052 -0.288056 -6.64016 0.698988 -0.0715669 0.711543 96 95 87 255 
-0.0386384 -0.289369 -6.64195 0.664374 -0.0607142 0.744931 113 112 104 255 
-0.0370022 -0.288311 -6.64357 0.735562 -0.112526 0.668046 117 116 108 255 
-0.0356732 -0.289692 -6.64464 0.782817 -0.0950782 0.614946 116 115 107 255 
-0.0349618 -0.288735 -6.6452 0.744759 -0.150156 0.65022 132 131 123 255 
-0.0299665 -0.290512 -6.64984 0.573503 -0.119685 0.810413 129 125 118 255 
-0.00924135 -0.288744 -6.70909 0.796666 -0.592311 0.120381 7 7 5 255 
-0.00356162 -0.289018 -6.71055 0.692976 -0.701068 0.168193 7 8 6 255 
0.0534163 -0.290391 -6.82736 0.626386 -0.681283 0.378806 14 16 14 255 
0.0600795 -0.289636 -6.82357 0.607528 -0.754168 0.249277 9 9 9 255 
0.0625314 -0.289452 -6.82701 0.869218 -0.467542 0.160825 8 8 8 255 
-0.0402557 -0.290451 -6.63967 0.747772 -0.0281033 0.66336 92 91 84 255 
-0.041845 -0.291714 -6.6386 0.771043 -0.0680984 0.633132 64 64 59 255 
-0.0387864 -0.291748 -6.64197 0.669992 -0.0415031 0.741207 110 109 102 255 
-0.0357233 -0.292525 -6.64511 0.770555 -0.045005 0.635783 119 119 112 255 
-0.0369569 -0.290967 -6.64363 0.742431 -0.0430003 0.668541 115 114 107 255 
-0.0343097 -0.291447 -6.64648 0.804869 -0.0454552 0.591709 140 140 134 255 
-0.0284432 -0.291726 -6.65182 0.581423 -0.03438 0.812875 125 123 114 255 
-0.0144145 -0.290943 -6.71169 0.822155 -0.558824 0.108525 35 36 30 255 
-0.00754488 -0.291089 -6.71167 0.64627 -0.738393 0.192642 23 26 21 255 
-0.00710872 -0.290267 -6.7158 0.626188 -0.752244 0.204984 13 15 12 255 
0.00434526 -0.292818 -6.71435 0.672741 -0.587648 0.449544 52 54 49 255 
0.0509116 -0.290553 -6.82823 0.395187 -0.822123 0.409806 14 16 15 255 
0.0569648 -0.29308 -6.82229 0.466285 -0.736338 0.490291 36 38 36 255 
0.0502431 -0.29109 -6.82876 0.767494 -0.396707 0.503564 23 25 23 255 
0.0525657 -0.290621 -6.83449 0.76122 -0.535941 0.365117 15 17 16 255 
0.0555196 -0.290804 -6.82895 0.353209 -0.836278 0.419383 14 16 15 255 
-0.0406616 -0.293032 -6.63955 0.76673 -0.0770188 0.637333 86 85 78 255 
-0.042081 -0.294034 -6.63869 0.772172 -0.0393015 0.634197 61 61 57 255 
-0.0392816 -0.294298 -6.64218 0.670116 -0.0592577 0.739888 110 108 102 255 
-0.0344527 -0.293774 -6.6465 0.815398 -0.0595821 0.575826 138 138 133 255 
-0.0300587 -0.292858 -6.65075 0.648861 -0.020576 0.760629 122 120 115 255 
-0.0285165 -0.29412 -6.65167 0.587411 0.023626 0.808944 141 140 133 255 
-0.026802 -0.29304 -6.65317 0.613682 0.021154 0.78927 149 148 140 255 
-0.0161595 -0.293407 -6.71192 0.843859 -0.48657 0.226169 125 127 122 255 
-0.0100225 -0.292433 -6.71611 0.633472 -0.7339 0.24516 97 101 94 255 
-0.00851374 -0.293627 -6.71859 0.267123 -0.888439 0.373257 128 132 125 255 
-0.00440853 -0.29315 -6.71662 0.763434 -0.61796 0.187867 111 115 107 255 
-0.000795864 -0.292992 -6.71516 0.783211 -0.481195 0.393741 86 88 82 255 
0.0501561 -0.294583 -6.82599 0.93647 -0.323322 0.135967 73 78 75 255 
0.0510171 -0.294016 -6.83042 0.262671 -0.863948 0.429649 71 75 73 255 
0.0492652 -0.293565 -6.83237 0.461784 -0.791472 0.400409 74 78 76 255 
0.0527515 -0.29282 -6.83079 0.438584 -0.802624 0.404275 57 60 58 255 
0.0533406 -0.29261 -6.83344 0.639042 -0.669076 0.379423 59 63 61 255 
-0.0406831 -0.29567 -6.63997 0.756107 -0.0385057 0.653314 88 87 81 255 
-0.0363898 -0.296787 -6.64467 0.767896 -0.00282684 0.640569 115 114 108 255 
-0.0356792 -0.294883 -6.64459 0.787837 -0.0618272 0.612773 114 113 107 255 
-0.0132036 -0.295346 -6.71161 0.83271 -0.530845 0.157472 127 130 125 255 
-0.0140272 -0.2939 -6.71582 0.833017 -0.541437 0.113706 127 131 125 255 
-0.0109862 -0.29556 -6.71801 0.271356 -0.875228 0.400427 134 137 133 255 
0.0508842 -0.29577 -6.83053 0.300054 -0.629315 0.71689 70 74 72 255 
0.0542678 -0.297538 -6.83075 0.831016 -0.468567 0.29976 73 78 75 255 
-0.0376572 -0.298049 -6.64361 0.747303 0.0545772 0.662238 110 109 103 255 
-0.0350088 -0.298236 -6.6465 0.690601 -0.0320003 0.722527 139 139 132 255 
-0.033817 -0.297469 -6.64802 0.669493 -0.0412326 0.741673 158 158 151 255 
-0.0304981 -0.297825 -6.65073 0.648087 -0.0389379 0.760571 136 135 131 255 
-0.0290988 -0.299322 -6.65151 0.411751 -0.0268741 0.9109 140 139 133 255 
-0.016015 -0.296579 -6.71605 0.838993 -0.534047 0.104325 128 131 128 255 
-0.0374968 -0.300398 -6.64395 0.735853 0.0505752 0.67525 108 107 101 255 
-0.0350127 -0.300598 -6.64614 0.726491 -0.00664668 0.687144 138 138 131 255 
-0.0308604 -0.300268 -6.65081 0.646704 -0.0852857 0.757958 136 135 131 255 
-0.0279169 -0.301615 -6.65231 0.424322 -0.0671057 0.903022 154 152 146 255 
-0.0255223 -0.301664 -6.65202 0.15295 -0.0334338 0.987668 151 148 139 255 
0.0155386 -0.299666 -6.79926 -0.195765 -0.00551908 0.980635 94 94 91 255 
0.0501562 -0.30058 -6.83146 0.823016 -0.482547 0.299654 72 77 75 255 
0.0498171 -0.299663 -6.83317 0.817869 -0.490808 0.300328 73 77 75 255 
-0.0363374 -0.301677 -6.64488 0.782506 -0.00932609 0.622574 111 111 104 255 
-0.0351733 -0.302891 -6.64722 0.782242 -0.0458572 0.621284 135 136 129 255 
-0.0311632 -0.302668 -6.65077 0.646756 -0.0791715 0.758577 135 135 131 255 
0.0171252 -0.302454 -6.79747 0.0433138 -0.0119042 0.998991 99 100 95 255 
0.0214938 -0.302902 -6.79739 0.82483 0.0059519 0.565349 120 120 115 255 
-0.0435464 -0.304642 -6.63688 0.788248 -0.0691625 0.611459 55 56 52 255 
-0.0364755 -0.303997 -6.64496 0.782944 -0.048867 0.62017 112 112 105 255 
0.0169863 -0.304962 -6.79723 0.0378934 -0.0317528 0.998777 98 99 96 255 
0.0128793 -0.304015 -6.80038 -0.168548 -0.0416367 0.984814 104 105 102 255 
0.0100265 -0.303974 -6.8026 0.196777 -0.0598519 0.97862 104 105 100 255 
0.0197729 -0.303987 -6.79613 0.740692 -0.0733301 0.66783 100 101 96 255 
0.0213859 -0.305406 -6.79708 0.878943 -0.0660082 0.472337 108 111 109 255 
-0.0436663 -0.306982 -6.63642 0.772206 -0.0485492 0.633514 61 62 59 255 
0.0179782 -0.306847 -6.79611 0.32164 -0.0197809 0.946655 98 98 94 255 
0.0153487 -0.30675 -6.79955 -0.222744 -0.040443 0.974038 101 101 98 255 
0.0197744 -0.306503 -6.79558 0.802074 -0.102016 0.588446 101 101 97 255 
0.0195866 -0.305769 -6.79649 0.579956 -0.0289239 0.814134 101 101 96 255 
0.0209681 -0.30717 -6.79723 0.715743 -0.0328661 0.69759 113 114 108 255 
0.028945 -0.306136 -6.80203 0.239895 0.00945652 0.970753 111 112 109 255 
-0.0423976 -0.308282 -6.63971 0.784894 -0.122928 0.607314 62 62 57 255 
-0.0301853 -0.310303 -6.65137 0.594653 -0.0679483 0.801106 133 133 128 255 
0.017746 -0.309334 -6.79614 0.307465 -0.0339303 0.950954 99 98 94 255 
0.015188 -0.309259 -6.79939 -0.220223 0.0098401 0.9754 100 99 96 255 
0.0193463 -0.308261 -6.79614 0.706682 -0.0661107 0.704436 101 101 96 255 
0.020735 -0.309654 -6.7972 0.712407 -0.0467576 0.700207 112 112 108 255 
0.0233802 -0.309482 -6.79966 0.535719 -0.0701829 0.841474 126 127 123 255 
0.0253675 -0.308472 -6.80054 0.481008 -0.061958 0.874524 117 117 114 255 
0.0276185 -0.308469 -6.80194 0.335161 -0.0680398 0.939701 109 110 108 255 
0.0297986 -0.308428 -6.80325 0.218226 -0.270878 0.937551 102 106 106 255 
0.0331702 -0.30994 -6.80623 0.928288 -0.256595 0.269149 107 108 106 255 
-0.0426838 -0.310677 -6.63984 0.764843 -0.133623 0.630207 65 66 61 255 
-0.0412717 -0.311985 -6.64133 0.669434 -0.0453596 0.741485 91 91 85 255 
-0.0336919 -0.312386 -6.64914 0.658204 -0.0628822 0.750209 155 155 150 255 
-0.028717 -0.311816 -6.65245 0.612297 -0.0852627 0.786017 149 149 141 255 
0.0164125 -0.311723 -6.79624 0.00428143 0.0291294 0.999566 96 97 94 255 
0.0191215 -0.31074 -6.79649 0.561937 -0.0639134 0.824707 101 100 96 255 
0.0218663 -0.310659 -6.79927 0.7155 -0.0212145 0.69829 124 125 120 255 
0.0207674 -0.312202 -6.79754 0.678989 -0.102832 0.726911 114 115 110 255 
0.0249101 -0.312572 -6.80158 0.553692 -0.00147864 0.83272 110 111 111 255 
0.0319426 -0.311384 -6.80453 0.809077 -0.025051 0.587168 105 108 108 255 
0.032969 -0.312542 -6.80685 0.873444 0.118771 0.472218 103 103 101 255 
-0.0397805 -0.313304 -6.64295 0.666103 -0.0656064 0.742969 106 105 98 255 
-0.0304497 -0.312744 -6.65178 0.644884 -0.0965197 0.758161 132 133 128 255 
-0.0288719 -0.314265 -6.65267 0.645312 -0.13028 0.752728 146 145 139 255 
0.018839 -0.313248 -6.79663 0.528956 -0.0746876 0.845357 100 100 96 255 
0.0203406 -0.314754 -6.79818 0.755624 -0.120805 0.643769 111 112 109 255 
0.0220148 -0.31366 -6.79929 0.80445 -0.0331476 0.593095 124 126 122 255 
0.0269284 -0.314008 -6.80215 0.374391 -0.0291511 0.926813 97 100 101 255 
0.0290547 -0.313973 -6.80353 0.140492 0.175376 0.974426 98 102 103 255 
0.0326659 -0.315092 -6.80762 0.848951 0.129555 0.512345 101 101 98 255 
0.0335966 -0.313866 -6.8099 0.801073 -0.126598 0.585026 103 102 97 255 
0.0344665 -0.315165 -6.81207 0.723982 0.00129899 0.689818 91 90 84 255 
-0.0451341 -0.316024 -6.63312 0.892253 -0.0514377 0.448596 49 50 48 255 
-0.0383629 -0.314645 -6.64396 0.748827 -0.0396589 0.661578 105 104 98 255 
-0.0305997 -0.315177 -6.65196 0.650798 -0.105065 0.751947 132 132 128 255 
-0.0292478 -0.316612 -6.65252 0.665364 -0.116011 0.73745 145 144 138 255 
0.0104257 -0.314899 -6.80227 -0.233225 -0.0195719 0.972226 101 103 100 255 
0.0171016 -0.31565 -6.7997 0.0474836 -0.0123897 0.998795 106 108 107 255 
0.021669 -0.316229 -6.79953 0.802972 -0.0499554 0.59392 119 121 117 255 
0.0247006 -0.315102 -6.8016 0.531576 -0.0419717 0.84597 110 111 111 255 
0.0261961 -0.317373 -6.8014 0.452053 -0.0200672 0.891765 123 123 120 255 
0.0316656 -0.317366 -6.80427 0.796567 -0.102322 0.595828 106 108 109 255 
0.0334051 -0.316378 -6.80994 0.767577 -0.0474414 0.639199 96 94 90 255 
0.0345831 -0.317766 -6.81172 0.725573 0.152058 0.671135 88 85 79 255 
-0.0461032 -0.317145 -6.63119 0.892694 -0.0488196 0.448011 47 49 46 255 
-0.045272 -0.318364 -6.63319 0.892325 -0.0510855 0.448494 50 51 48 255 
-0.0416075 -0.316818 -6.64034 0.730893 -0.051359 0.680557 82 82 74 255 
-0.0296548 -0.31894 -6.65258 0.681985 -0.0586093 0.729014 140 140 134 255 
-0.0279603 -0.31804 -6.65369 0.630834 -0.0540482 0.774033 156 154 146 255 
0.0234758 -0.321233 -6.66189 -0.166398 -0.145237 0.975304 97 97 96 255 
0.00897955 -0.317579 -6.80297 0.0951947 -0.0129847 0.995374 98 100 96 255 
0.0117993 -0.317593 -6.80112 -0.0441707 0.00177789 0.999022 116 115 109 255 
0.0121574 -0.317559 -6.80469 0.449733 -0.242928 0.859492 114 114 109 255 
0.0192168 -0.318437 -6.79862 0.226328 -0.0199284 0.973847 114 114 108 255 
0.0220392 -0.318437 -6.79926 0.743814 -0.0803012 0.663546 134 136 132 255 
0.0235402 -0.317341 -6.80103 0.46748 -0.0225887 0.883715 134 135 131 255 
0.0273854 -0.319621 -6.80197 0.211369 -0.0411242 0.976541 119 119 116 255 
0.0311867 -0.319878 -6.80405 0.804752 -0.217603 0.552289 108 110 111 255 
0.0331694 -0.318908 -6.80993 0.796018 -0.0755712 0.600537 90 88 84 255 
0.0360976 -0.319081 -6.81291 0.946605 0.286654 0.147541 86 84 78 255 
0.0388148 -0.318612 -6.81686 0.948484 -0.286695 0.13485 93 97 96 255 
-0.0462383 -0.319484 -6.63121 0.89265 -0.0503938 0.447925 52 53 51 255 
-0.0454972 -0.320683 -6.63341 0.891493 -0.0646546 0.448398 49 50 48 255 
-0.0444271 -0.319606 -6.63555 0.868211 -0.0793609 0.489807 53 54 50 255 
-0.0429447 -0.320487 -6.63955 0.764611 0.158637 0.624664 63 64 58 255 
-0.0400905 -0.320474 -6.64224 0.688527 -0.0360812 0.724312 109 108 99 255 
-0.0415581 -0.319221 -6.64142 0.725654 0.0426401 0.686737 91 90 82 255 
-0.0384067 -0.319317 -6.64406 0.779956 -0.0277144 0.625221 107 106 98 255 
0.0206478 -0.324336 -6.65771 0.675381 0.0255079 0.737027 115 116 111 255 
0.0250125 -0.323923 -6.66185 -0.149101 0.0725477 0.986157 87 73 66 255 
0.0443495 -0.323863 -6.67722 0.841201 -0.522337 0.139805 86 96 106 255 
0.0445193 -0.325027 -6.67862 0.908322 -0.401968 0.115639 85 98 108 255 
0.0103345 -0.320286 -6.80133 -0.0608483 -0.0407417 0.997315 100 101 93 255 
0.0105825 -0.320369 -6.8018 -0.236061 0.00135724 0.971737 101 101 94 255 
0.0136237 -0.320234 -6.79992 -0.23293 -0.0323239 0.971956 118 117 111 255 
0.0178933 -0.320948 -6.79813 0.225806 -0.0598876 0.97233 109 108 102 255 
0.0206139 -0.32094 -6.799 0.219441 -0.0844468 0.971964 129 129 122 255 
0.0232528 -0.31983 -6.80107 0.514209 -0.0848169 0.853461 131 130 126 255 
0.0298495 -0.321067 -6.80318 0.699498 -0.0503615 0.712858 103 106 107 255 
0.0317183 -0.322305 -6.80438 0.667425 0.226126 0.709515 107 109 109 255 
0.0333278 -0.320614 -6.80539 0.903999 -0.35604 0.236687 109 108 106 255 
0.0328248 -0.321416 -6.80993 0.778789 -0.106627 0.618158 96 92 88 255 
0.0344602 -0.320357 -6.81152 0.704576 0.0158804 0.70945 88 83 78 255 
0.0373871 -0.321805 -6.8174 0.951172 -0.280835 0.128075 97 102 99 255 
0.0382183 -0.320413 -6.82209 0.947444 0.139937 0.287695 82 86 86 255 
0.0426719 -0.322574 -6.82377 0.944978 0.287384 0.156289 72 76 74 255 
-0.0439604 -0.321927 -6.63721 0.785871 -0.0700718 0.614407 58 59 55 255 
-0.0431357 -0.322607 -6.64033 0.781693 -0.128055 0.610375 58 59 55 255 
-0.041675 -0.321569 -6.64156 0.649815 -0.0729716 0.756582 89 89 81 255 
0.0201039 -0.326039 -6.65862 0.826434 0.0333386 0.562046 116 117 114 255 
0.0234565 -0.326705 -6.66226 -0.0864082 -0.0695833 0.993827 97 90 86 255 
0.0266597 -0.32672 -6.66012 -0.132894 -0.12995 0.982574 79 56 42 255 
0.0440896 -0.326984 -6.67756 0.568524 -0.495612 0.656619 92 103 109 255 
0.0120857 -0.323035 -6.80114 -0.283725 -0.0274324 0.958513 115 114 111 255 
0.0161541 -0.323426 -6.79861 0.26178 -0.128572 0.956525 114 112 108 255 
0.0191176 -0.323434 -6.79897 0.225307 -0.0366748 0.973597 116 115 109 255 
0.0218909 -0.32343 -6.79972 0.741841 -0.0898433 0.66453 131 131 125 255 
0.0235403 -0.322365 -6.80119 0.484307 -0.0464627 0.873664 128 127 124 255 
0.0269642 -0.322238 -6.80317 -0.162802 -0.0528258 0.985244 92 96 98 255 
0.0298623 -0.323565 -6.80326 0.743689 0.0241608 0.668089 102 105 106 255 
0.032733 -0.322942 -6.80696 0.803068 0.0962431 0.588064 108 106 104 255 
0.0328148 -0.323947 -6.81028 0.861837 -0.155932 0.482621 107 104 100 255 
0.0345741 -0.32288 -6.81181 0.840913 -0.249931 0.48 101 97 91 255 
0.0385 -0.323507 -6.8191 0.803803 -0.0234663 0.594432 91 94 92 255 
0.0368287 -0.323132 -6.82448 0.919783 -0.103509 0.37853 84 88 87 255 
0.0392604 -0.324108 -6.82875 0.916569 -0.188528 0.352647 89 91 91 255 
-0.0456826 -0.323018 -6.63368 0.892404 -0.0547772 0.4479 47 51 50 255 
-0.0441562 -0.324246 -6.63702 0.788547 -0.0572418 0.612304 55 56 52 255 
-0.0405077 -0.325198 -6.64309 0.666968 -0.0696889 0.74182 96 96 87 255 
-0.0388463 -0.324176 -6.64415 0.744686 -0.0679897 0.663943 107 106 98 255 
0.0194466 -0.327342 -6.65659 0.81028 0.253498 0.52838 118 118 114 255 
0.0205982 -0.328285 -6.65838 0.836058 0.140015 0.530474 118 118 116 255 
0.0421142 -0.329485 -6.67725 0.843773 -0.410829 0.34535 97 99 95 255 
0.0413938 -0.327985 -6.6774 0.919399 -0.00592883 0.393282 100 94 85 255 
0.0105735 -0.325693 -6.80224 -0.243644 0.00840633 0.969828 122 120 113 255 
0.0169271 -0.325879 -6.79643 0.358566 -0.0941035 0.928749 109 109 107 255 
0.0204955 -0.325935 -6.79941 0.221736 -0.0720206 0.972444 111 112 111 255 
0.0232733 -0.324854 -6.80111 0.474253 -0.0973935 0.874985 131 130 127 255 
0.0258095 -0.324874 -6.80173 0.224341 -0.0489419 0.973281 105 108 108 255 
0.0296767 -0.326069 -6.80316 0.770729 -0.0852978 0.631428 100 103 103 255 
0.0314009 -0.32499 -6.8046 0.804765 -0.193937 0.561018 106 109 108 255 
0.0340871 -0.32548 -6.81182 0.829144 -0.0667437 0.555037 101 101 95 255 
0.0353996 -0.326086 -6.81559 0.903614 -0.106228 0.414968 104 102 96 255 
0.0370841 -0.324889 -6.81713 0.962476 -0.170327 0.211257 100 103 100 255 
0.0361051 -0.325888 -6.82614 0.897266 -0.267078 0.351544 86 88 86 255 
