ply
format ascii 1.0
comment VCGLIB generated
element vertex 1092
property float x
property float y
property float z
property uchar red
property uchar green
property uchar blue
property uchar alpha
element face 0
property list uchar int vertex_indices
end_header
-0.0472862 -0.124342 -2.58628 13 13 12 255 
-0.0468985 -0.124215 -2.58624 42 39 37 255 
-0.0470266 -0.124091 -2.5861 24 23 22 255 
-0.0464632 -0.124112 -2.58595 53 50 48 255 
-0.0448436 -0.123747 -2.58464 56 56 52 255 
-0.0438732 -0.123569 -2.5842 35 35 32 255 
-0.0435853 -0.123643 -2.58446 32 33 32 255 
-0.0435534 -0.123499 -2.58462 33 34 33 255 
-0.0433633 -0.123714 -2.58484 29 30 28 255 
-0.0424781 -0.123871 -2.5858 22 23 22 255 
-0.0422464 -0.124013 -2.58625 18 19 18 255 
-0.0419683 -0.124113 -2.58646 9 9 9 255 
-0.032421 -0.116685 -2.56325 26 32 21 255 
-0.0324408 -0.117029 -2.56367 33 38 25 255 
-0.0321472 -0.116946 -2.56391 30 33 25 255 
-0.0318123 -0.117101 -2.56417 61 63 57 255 
-0.0314889 -0.120021 -2.57463 69 70 68 255 
-0.0316778 -0.120035 -2.57474 61 62 61 255 
-0.0314066 -0.119809 -2.57453 65 67 64 255 
-0.0310389 -0.119903 -2.57412 70 71 69 255 
-0.0270557 -0.11994 -2.57546 33 33 30 255 
-0.0268156 -0.120102 -2.57546 27 29 24 255 
-0.0266663 -0.120052 -2.57548 20 21 17 255 
-0.0264001 -0.11983 -2.57527 14 15 12 255 
-0.0265671 -0.11994 -2.57544 14 14 12 255 
-0.0262561 -0.119948 -2.57507 12 12 10 255 
-0.0260927 -0.11975 -2.5751 16 17 16 255 
-0.0222936 -0.11528 -2.55965 16 17 20 255 
-0.01849 -0.116396 -2.56464 121 119 112 255 
-0.0180335 -0.115994 -2.56368 119 116 112 255 
-0.0177706 -0.116196 -2.56395 103 101 96 255 
-0.0177536 -0.116068 -2.56394 108 106 102 255 
-0.0129547 -0.116563 -2.56589 14 15 13 255 
0.0018376 -0.119712 -2.5809 15 16 14 255 
0.00182831 -0.119712 -2.58089 15 16 14 255 
0.0021155 -0.118759 -2.57749 25 25 24 255 
0.00210407 -0.118756 -2.57747 25 25 24 255 
0.00270273 -0.118818 -2.57682 36 37 36 255 
0.0143701 -0.11881 -2.57971 25 25 23 255 
0.0142506 -0.118373 -2.57849 40 40 37 255 
0.0261141 -0.116926 -2.5752 151 135 117 255 
-0.0475083 -0.123027 -2.58089 29 27 25 255 
-0.0473302 -0.124495 -2.58548 11 11 11 255 
-0.0471493 -0.124608 -2.58635 15 14 13 255 
-0.0469204 -0.124522 -2.58622 40 38 35 255 
-0.0467394 -0.12441 -2.58612 49 45 42 255 
-0.0465639 -0.124571 -2.58591 48 45 42 255 
-0.0464963 -0.124313 -2.58593 51 48 46 255 
-0.046704 -0.12445 -2.58613 49 45 43 255 
-0.0463395 -0.124421 -2.58546 52 51 48 255 
-0.0462936 -0.124263 -2.5858 57 58 56 255 
-0.0461657 -0.124462 -2.58566 56 57 55 255 
-0.0452705 -0.123945 -2.58452 53 55 53 255 
-0.0446868 -0.123927 -2.58434 48 46 41 255 
-0.0441901 -0.12385 -2.58404 46 42 37 255 
-0.043977 -0.123845 -2.58408 35 34 30 255 
-0.0437254 -0.123873 -2.58417 35 35 33 255 
-0.0434259 -0.123922 -2.58456 29 30 29 255 
-0.0433513 -0.123754 -2.58485 29 30 28 255 
-0.0431257 -0.123838 -2.58521 27 28 27 255 
-0.0428872 -0.123904 -2.58547 26 27 26 255 
-0.0429728 -0.124076 -2.58517 27 28 27 255 
-0.0426331 -0.124094 -2.58544 24 25 23 255 
-0.0424369 -0.124297 -2.5861 23 24 22 255 
-0.0421471 -0.124348 -2.58628 17 17 17 255 
-0.0418609 -0.124432 -2.58644 7 7 7 255 
-0.0416821 -0.124198 -2.58662 7 7 7 255 
-0.0415581 -0.124345 -2.58629 6 6 6 255 
-0.0321028 -0.117242 -2.56395 36 39 31 255 
-0.0316612 -0.117324 -2.56425 70 71 68 255 
-0.032441 -0.120551 -2.57509 71 73 71 255 
-0.0320473 -0.120378 -2.57502 62 64 62 255 
-0.0320833 -0.120583 -2.57496 64 66 65 255 
-0.031763 -0.120437 -2.57474 57 59 57 255 
-0.031599 -0.120161 -2.57446 66 68 66 255 
-0.0315413 -0.120339 -2.57433 71 72 71 255 
-0.031626 -0.12034 -2.57454 64 65 64 255 
-0.0312138 -0.120161 -2.57424 67 69 66 255 
-0.0310422 -0.120123 -2.57409 69 71 68 255 
-0.0308884 -0.119994 -2.57397 67 68 66 255 
-0.0290618 -0.116951 -2.56378 54 53 44 255 
-0.0269845 -0.120444 -2.57561 32 34 28 255 
-0.0269765 -0.12017 -2.57556 33 33 30 255 
-0.0266916 -0.120262 -2.57538 23 25 20 255 
-0.0265623 -0.120175 -2.5753 15 16 13 255 
-0.0263953 -0.120291 -2.57517 10 10 9 255 
-0.0264102 -0.120077 -2.57527 10 10 9 255 
-0.0262369 -0.120209 -2.57508 11 11 10 255 
-0.0190047 -0.116746 -2.56511 114 93 81 255 
-0.0184146 -0.116536 -2.56439 122 119 111 255 
-0.0175185 -0.116343 -2.56406 97 94 89 255 
-0.0168829 -0.116336 -2.5639 90 89 84 255 
-0.016442 -0.116301 -2.56349 98 97 91 255 
-0.0117152 -0.116988 -2.56667 17 17 16 255 
-0.00788176 -0.118561 -2.57291 47 46 44 255 
-0.00776967 -0.118326 -2.57232 44 44 41 255 
0.00205139 -0.119485 -2.57839 22 22 21 255 
0.00195816 -0.11959 -2.57874 20 20 20 255 
0.00233623 -0.119629 -2.57954 19 19 19 255 
0.00223678 -0.119113 -2.57749 26 26 25 255 
0.00275655 -0.119112 -2.57715 34 34 33 255 
0.00288961 -0.11874 -2.5765 40 39 37 255 
0.0145022 -0.11963 -2.58075 18 18 17 255 
0.013907 -0.118626 -2.57801 35 35 33 255 
0.0367563 -0.114509 -2.56851 177 175 169 255 
-0.0473225 -0.124717 -2.58513 10 10 10 255 
-0.0469679 -0.124765 -2.58614 30 28 26 255 
-0.0467391 -0.124679 -2.586 48 44 41 255 
-0.0464382 -0.12469 -2.58548 47 44 41 255 
-0.0449588 -0.124389 -2.58447 50 52 48 255 
-0.0448429 -0.124156 -2.58439 50 51 47 255 
-0.0445917 -0.124142 -2.5843 45 42 37 255 
-0.0440526 -0.124023 -2.58387 38 36 32 255 
-0.0439016 -0.124196 -2.58398 34 34 31 255 
-0.0435112 -0.124105 -2.58431 32 33 31 255 
-0.0433066 -0.124192 -2.58467 32 33 31 255 
-0.0430067 -0.124071 -2.58418 30 31 29 255 
-0.0423702 -0.124864 -2.58654 22 23 22 255 
-0.042281 -0.124471 -2.58622 22 22 21 255 
-0.0423702 -0.124864 -2.58654 22 23 22 255 
-0.042281 -0.124471 -2.58622 22 22 21 255 
-0.0420602 -0.124659 -2.58619 15 15 15 255 
-0.0416993 -0.124716 -2.58656 6 6 6 255 
-0.0415459 -0.124481 -2.58572 6 6 6 255 
-0.0332642 -0.11747 -2.56307 34 40 28 255 
-0.0330457 -0.117399 -2.56313 33 37 24 255 
-0.0327773 -0.117288 -2.56314 33 40 24 255 
-0.0325332 -0.117374 -2.56356 41 46 33 255 
-0.0322507 -0.117597 -2.56371 27 29 24 255 
-0.0323955 -0.117645 -2.56396 27 31 23 255 
-0.0319617 -0.117604 -2.56441 66 68 65 255 
-0.031818 -0.117623 -2.56455 70 71 70 255 
-0.0325823 -0.120983 -2.57515 68 71 69 255 
-0.0325391 -0.120754 -2.57508 67 69 67 255 
-0.0324009 -0.120928 -2.57502 68 71 69 255 
-0.0319538 -0.120725 -2.57483 55 57 55 255 
-0.0321179 -0.120803 -2.57494 68 70 68 255 
-0.0316783 -0.120624 -2.57466 61 62 61 255 
-0.0313256 -0.120351 -2.57426 68 70 67 255 
-0.0314709 -0.120585 -2.57443 71 73 70 255 
-0.0311535 -0.120321 -2.57407 65 66 64 255 
-0.0282389 -0.117226 -2.56343 19 22 14 255 
-0.0282428 -0.117222 -2.56346 20 22 14 255 
-0.0284378 -0.117227 -2.56346 32 35 23 255 
-0.0283035 -0.11708 -2.56356 27 27 20 255 
-0.0262794 -0.115938 -2.55924 17 17 17 255 
-0.0262794 -0.115938 -2.55924 17 17 17 255 
-0.0265503 -0.120399 -2.57524 21 22 17 255 
-0.026506 -0.120628 -2.57515 13 13 11 255 
-0.0263219 -0.120528 -2.57503 10 10 9 255 
-0.0261695 -0.120401 -2.57485 11 11 11 255 
-0.0220682 -0.115651 -2.55922 65 71 72 255 
-0.0218394 -0.115585 -2.5591 15 20 18 255 
-0.0191126 -0.116996 -2.56504 112 91 77 255 
-0.0190179 -0.117168 -2.56502 111 90 77 255 
-0.0188946 -0.117089 -2.56495 109 91 79 255 
-0.0182291 -0.11669 -2.56377 133 129 120 255 
-0.0170964 -0.116654 -2.56372 107 104 97 255 
-0.016943 -0.116608 -2.56327 103 101 93 255 
0.00194081 -0.119777 -2.5781 22 22 22 255 
0.00228195 -0.119829 -2.57783 26 26 25 255 
0.00292177 -0.119214 -2.57671 41 42 39 255 
0.0159496 -0.121647 -2.58721 21 21 19 255 
0.0148113 -0.119685 -2.58037 25 25 23 255 
0.0147096 -0.119865 -2.58061 22 22 21 255 
-0.047248 -0.125116 -2.58538 14 15 14 255 
-0.0472499 -0.124937 -2.58557 15 15 14 255 
-0.0470674 -0.124968 -2.58589 20 19 17 255 
-0.046972 -0.125168 -2.58557 22 20 18 255 
-0.0468434 -0.12491 -2.58577 39 35 34 255 
-0.046751 -0.125133 -2.58567 42 39 37 255 
-0.0446129 -0.124575 -2.58419 45 42 37 255 
-0.0448609 -0.124666 -2.58438 53 54 49 255 
-0.0447397 -0.124366 -2.58429 49 48 44 255 
-0.0445249 -0.124304 -2.58412 46 42 37 255 
-0.0444037 -0.124506 -2.584 47 42 37 255 
-0.0440561 -0.124448 -2.58374 38 35 31 255 
-0.0436465 -0.124299 -2.58416 33 34 33 255 
-0.0433695 -0.124403 -2.58447 30 32 30 255 
-0.0431414 -0.124415 -2.58426 29 30 29 255 
-0.0431414 -0.124415 -2.58426 29 30 29 255 
-0.042874 -0.1246 -2.58442 26 27 26 255 
-0.0428988 -0.124679 -2.58548 28 29 27 255 
-0.0425436 -0.124676 -2.5856 25 26 25 255 
-0.0422374 -0.124765 -2.58574 22 23 22 255 
-0.0419913 -0.124914 -2.58627 11 11 11 255 
-0.0417108 -0.124904 -2.58626 6 6 6 255 
-0.0416915 -0.125097 -2.58688 6 6 6 255 
-0.0332587 -0.117648 -2.56292 25 30 19 255 
-0.0330261 -0.117584 -2.56306 32 38 24 255 
-0.0326521 -0.117564 -2.56338 40 45 31 255 
-0.032658 -0.117772 -2.56363 28 32 20 255 
-0.0324198 -0.117887 -2.56392 22 25 19 255 
-0.0325429 -0.12115 -2.57498 67 69 67 255 
-0.0326885 -0.121179 -2.57519 64 66 65 255 
-0.0320161 -0.121021 -2.57481 65 67 66 255 
-0.0318357 -0.120938 -2.57466 51 54 51 255 
-0.0316665 -0.120871 -2.57454 61 63 60 255 
-0.0315608 -0.121046 -2.57449 65 67 64 255 
-0.0314905 -0.120807 -2.57442 71 73 70 255 
-0.0312277 -0.120679 -2.57399 59 61 58 255 
-0.029556 -0.11781 -2.56407 44 45 41 255 
-0.0295563 -0.117814 -2.56408 44 44 41 255 
-0.029593 -0.117787 -2.56399 49 51 46 255 
-0.0277454 -0.116575 -2.56022 27 31 21 255 
-0.0270291 -0.116013 -2.55901 19 22 17 255 
-0.0261765 -0.116164 -2.55925 15 15 13 255 
-0.0261769 -0.120651 -2.57484 10 10 10 255 
-0.0260145 -0.120822 -2.57483 11 11 11 255 
-0.0259028 -0.120628 -2.57487 13 14 13 255 
-0.0188903 -0.117379 -2.56486 105 88 77 255 
-0.0187702 -0.117277 -2.56468 110 99 91 255 
-0.018638 -0.117216 -2.5646 121 116 108 255 
-0.0183749 -0.117339 -2.5645 117 115 108 255 
-0.0173664 -0.116677 -2.56305 113 111 102 255 
-0.0174168 -0.116784 -2.56359 110 109 99 255 
-0.0168551 -0.116704 -2.56293 117 114 107 255 
-0.0160175 -0.116642 -2.56268 61 54 50 255 
-0.014347 -0.116943 -2.56434 73 74 72 255 
-0.0129116 -0.117338 -2.56558 13 14 12 255 
-0.012737 -0.117344 -2.56571 14 14 14 255 
-0.0118867 -0.117215 -2.56592 17 17 16 255 
-0.0116097 -0.117107 -2.56519 29 28 26 255 
0.00207325 -0.120646 -2.58026 20 20 19 255 
0.00291181 -0.119559 -2.57676 37 37 36 255 
0.00281239 -0.119432 -2.5763 39 39 37 255 
0.0159703 -0.122078 -2.58728 22 22 20 255 
0.0163056 -0.121729 -2.58678 22 22 21 255 
0.0145974 -0.120041 -2.58079 19 19 18 255 
0.0145611 -0.120317 -2.58099 18 19 17 255 
0.0145922 -0.12037 -2.58117 19 19 17 255 
0.0264508 -0.117239 -2.57333 147 142 134 255 
-0.0473166 -0.125191 -2.58487 13 13 12 255 
-0.047076 -0.12539 -2.58527 17 17 15 255 
-0.0470889 -0.125566 -2.58596 14 13 12 255 
-0.0466469 -0.125355 -2.58555 44 40 38 255 
-0.0463457 -0.125164 -2.58549 44 43 40 255 
-0.0447994 -0.124884 -2.58422 50 51 46 255 
-0.0445379 -0.124792 -2.58403 45 41 37 255 
-0.0447537 -0.124854 -2.58421 49 49 44 255 
-0.0440967 -0.124696 -2.58373 40 36 33 255 
-0.0438065 -0.124543 -2.58391 35 35 32 255 
-0.0434474 -0.124661 -2.58431 32 33 32 255 
-0.0435694 -0.124897 -2.58415 35 35 34 255 
-0.0431958 -0.124693 -2.58458 29 30 29 255 
-0.0433466 -0.125009 -2.58467 32 33 32 255 
-0.0430347 -0.124983 -2.5847 27 28 27 255 
-0.0426852 -0.125121 -2.58572 25 26 25 255 
-0.0423543 -0.125105 -2.58566 22 23 22 255 
-0.0420856 -0.12521 -2.58605 18 18 18 255 
-0.0417925 -0.125272 -2.58629 6 6 6 255 
-0.0416103 -0.125419 -2.5864 6 6 6 255 
-0.0417033 -0.125336 -2.58658 6 6 6 255 
-0.0334007 -0.117942 -2.56282 32 35 26 255 
-0.0330337 -0.117755 -2.56292 39 43 28 255 
-0.0318806 -0.118321 -2.5648 62 63 60 255 
-0.0322025 -0.121309 -2.5749 67 69 67 255 
-0.032417 -0.121322 -2.57491 68 70 68 255 
-0.0318937 -0.121173 -2.57471 54 56 54 255 
-0.0319581 -0.121402 -2.57471 59 61 59 255 
-0.0316317 -0.121241 -2.57442 60 62 60 255 
-0.0317958 -0.121325 -2.57455 52 55 52 255 
-0.0317189 -0.121104 -2.5746 57 59 56 255 
-0.0317354 -0.121111 -2.5746 56 58 55 255 
-0.031346 -0.121056 -2.57414 69 71 69 255 
-0.0314797 -0.121162 -2.57427 69 71 68 255 
-0.0312514 -0.120905 -2.57397 61 63 60 255 
-0.0295756 -0.117865 -2.56406 46 46 42 255 
-0.0293961 -0.117951 -2.56425 44 45 39 255 
-0.0294666 -0.118041 -2.56417 44 44 40 255 
-0.0270517 -0.116354 -2.55915 14 16 12 255 
-0.0262195 -0.12091 -2.57491 9 9 9 255 
-0.0223199 -0.116153 -2.5594 15 17 18 255 
-0.0225097 -0.11627 -2.55971 12 12 11 255 
-0.0191531 -0.117747 -2.56499 101 84 73 255 
-0.0189363 -0.117596 -2.56487 103 83 71 255 
-0.018802 -0.117493 -2.56466 105 92 83 255 
-0.0188356 -0.117724 -2.56471 100 84 75 255 
-0.0187058 -0.117643 -2.56458 110 102 94 255 
-0.0186705 -0.117418 -2.56456 118 113 105 255 
-0.0185875 -0.117562 -2.56443 116 112 104 255 
-0.0184574 -0.117521 -2.5644 114 111 105 255 
-0.0169077 -0.116836 -2.56267 124 122 113 255 
-0.0129502 -0.117466 -2.56541 14 15 13 255 
-0.0128241 -0.117407 -2.56539 15 16 15 255 
-0.0117422 -0.117659 -2.56576 19 19 18 255 
0.00217183 -0.120909 -2.58006 22 22 21 255 
0.00164108 -0.120615 -2.57828 20 20 20 255 
0.00202532 -0.120993 -2.58018 16 16 14 255 
0.00268396 -0.12033 -2.5772 36 37 35 255 
0.00273624 -0.12006 -2.57725 36 37 35 255 
0.0163197 -0.122188 -2.58699 22 22 21 255 
0.0160949 -0.122261 -2.5869 22 22 21 255 
0.016474 -0.122452 -2.58686 25 25 23 255 
0.0146583 -0.120764 -2.58119 19 19 18 255 
0.0259803 -0.118251 -2.57483 121 96 76 255 
0.0380548 -0.115336 -2.56738 174 172 166 255 
-0.0480345 -0.124959 -2.58239 6 6 6 255 
-0.046933 -0.125748 -2.58575 25 23 21 255 
-0.0465053 -0.125609 -2.58553 43 40 37 255 
-0.0465941 -0.125671 -2.58541 41 37 34 255 
-0.0461673 -0.1256 -2.5852 52 52 49 255 
-0.0448861 -0.125026 -2.58395 52 54 49 255 
-0.0447867 -0.125285 -2.58405 50 50 45 255 
-0.0446499 -0.125051 -2.58404 44 43 38 255 
-0.0444568 -0.125032 -2.584 44 40 35 255 
-0.0442333 -0.124953 -2.58381 44 39 35 255 
-0.0440103 -0.124905 -2.58361 35 32 29 255 
-0.0436579 -0.125145 -2.584 36 36 34 255 
-0.0433758 -0.125113 -2.58404 30 31 30 255 
-0.0431443 -0.125207 -2.58449 29 30 29 255 
-0.0432682 -0.125278 -2.58427 29 30 29 255 
-0.0428401 -0.125257 -2.58478 26 27 26 255 
-0.0427028 -0.125237 -2.58504 26 27 26 255 
-0.0424401 -0.125369 -2.58543 23 24 23 255 
-0.0421695 -0.125501 -2.58577 21 22 21 255 
-0.0418809 -0.125572 -2.58605 7 7 7 255 
-0.0416241 -0.125711 -2.58654 6 6 6 255 
-0.0330596 -0.121942 -2.57533 61 62 60 255 
-0.0325151 -0.121732 -2.57492 62 64 61 255 
-0.0321745 -0.121697 -2.57477 66 68 66 255 
-0.0323009 -0.121701 -2.57471 63 65 63 255 
-0.0318413 -0.121541 -2.57451 50 52 49 255 
-0.0319977 -0.121629 -2.57465 63 65 63 255 
-0.0321166 -0.121486 -2.5748 66 68 66 255 
-0.0316774 -0.121458 -2.57438 59 61 58 255 
-0.031433 -0.121538 -2.57417 69 71 68 255 
-0.0278817 -0.11695 -2.55999 37 40 27 255 
-0.0277398 -0.116934 -2.55991 36 40 28 255 
-0.0191886 -0.117982 -2.56505 93 78 69 255 
-0.0190645 -0.117866 -2.5648 101 81 69 255 
-0.0189424 -0.117794 -2.56472 100 81 70 255 
-0.0184004 -0.117688 -2.56433 112 109 103 255 
-0.0175244 -0.117229 -2.56283 124 122 114 255 
-0.0171001 -0.117179 -2.56296 126 122 114 255 
-0.0130075 -0.117692 -2.56535 14 13 12 255 
0.00227849 -0.121771 -2.58174 17 17 15 255 
0.00210978 -0.121297 -2.5801 17 18 16 255 
0.00258637 -0.120551 -2.57759 31 32 30 255 
0.0155235 -0.122594 -2.58632 20 20 19 255 
0.015695 -0.122456 -2.58612 21 22 20 255 
0.0156092 -0.122219 -2.58562 24 24 22 255 
0.0149625 -0.121049 -2.58164 16 16 15 255 
0.0147894 -0.121059 -2.581 21 21 20 255 
0.0238842 -0.120038 -2.57922 12 12 12 255 
0.0257776 -0.119948 -2.57934 7 7 7 255 
0.0374486 -0.115907 -2.568 173 171 165 255 
-0.048431 -0.125027 -2.58149 11 11 10 255 
-0.0482451 -0.125082 -2.58227 7 7 6 255 
-0.0482451 -0.125082 -2.58227 7 7 6 255 
-0.0482451 -0.125082 -2.58227 8 8 8 255 
-0.0475778 -0.126003 -2.58478 8 8 8 255 
-0.0471252 -0.12626 -2.5857 15 15 13 255 
-0.0470028 -0.126026 -2.58566 18 17 15 255 
-0.0467769 -0.12593 -2.58554 38 36 33 255 
-0.0467106 -0.126161 -2.58546 41 37 35 255 
-0.0467525 -0.126031 -2.58563 40 37 35 255 
-0.0465032 -0.12586 -2.5852 40 36 33 255 
-0.0462873 -0.125829 -2.58511 45 43 41 255 
-0.0454087 -0.125165 -2.58247 50 52 49 255 
-0.045601 -0.125467 -2.58427 51 53 51 255 
-0.0447759 -0.125502 -2.58392 52 53 48 255 
-0.0445623 -0.125279 -2.58396 41 39 34 255 
-0.0444952 -0.125508 -2.58386 42 40 35 255 
-0.0443501 -0.125276 -2.58386 43 38 34 255 
-0.0436587 -0.125296 -2.58382 36 35 34 255 
-0.0432225 -0.125424 -2.58423 29 30 29 255 
-0.0430186 -0.125563 -2.58476 28 29 28 255 
-0.0428137 -0.125677 -2.58454 25 26 25 255 
-0.0427315 -0.125413 -2.58455 24 25 24 255 
-0.0424873 -0.125767 -2.58492 23 24 23 255 
-0.0423106 -0.125966 -2.58563 21 22 21 255 
-0.0421905 -0.125693 -2.58566 21 21 21 255 
-0.0417713 -0.12594 -2.58596 6 6 6 255 
-0.0420009 -0.126036 -2.58589 15 15 15 255 
-0.0414525 -0.126086 -2.58653 6 6 6 255 
-0.0334751 -0.118419 -2.56265 20 23 16 255 
-0.0325747 -0.118481 -2.56321 27 29 22 255 
-0.0320528 -0.11858 -2.56386 65 65 64 255 
-0.0324244 -0.121926 -2.57484 59 61 59 255 
-0.0326088 -0.1219 -2.57487 58 59 56 255 
-0.0322274 -0.121927 -2.57474 64 66 64 255 
-0.0318842 -0.121775 -2.5745 52 54 52 255 
-0.0320567 -0.121849 -2.57465 67 69 67 255 
-0.03145 -0.121744 -2.57409 68 70 67 255 
-0.0315937 -0.121644 -2.57432 61 63 61 255 
-0.0312907 -0.121647 -2.57397 64 66 63 255 
-0.0311523 -0.121534 -2.57383 55 57 53 255 
-0.0310082 -0.121664 -2.57362 54 56 54 255 
-0.0308468 -0.121411 -2.57359 56 57 55 255 
-0.0277045 -0.117281 -2.55992 27 29 22 255 
-0.0189779 -0.118253 -2.56475 93 75 62 255 
-0.0189174 -0.118043 -2.56474 93 76 64 255 
-0.0188339 -0.118147 -2.5645 94 80 70 255 
-0.01862 -0.117988 -2.56435 114 109 101 255 
-0.0181337 -0.117636 -2.56345 106 103 97 255 
-0.0173928 -0.11755 -2.56315 128 124 116 255 
-0.0126677 -0.118181 -2.5656 13 13 13 255 
-0.00794596 -0.119747 -2.57162 40 41 38 255 
-0.00801336 -0.119941 -2.57206 40 40 38 255 
0.00244457 -0.122405 -2.58169 15 15 13 255 
0.00230634 -0.121202 -2.57867 24 24 23 255 
0.0156445 -0.122881 -2.58624 22 23 20 255 
0.0159866 -0.123051 -2.58606 22 23 21 255 
0.0160894 -0.12268 -2.58604 24 24 22 255 
0.0143945 -0.120824 -2.57908 28 29 27 255 
0.0143779 -0.1208 -2.57899 28 29 27 255 
0.0143197 -0.120805 -2.57941 28 28 26 255 
0.0143197 -0.120805 -2.57941 28 28 26 255 
0.0382114 -0.115892 -2.56752 175 174 167 255 
-0.048543 -0.125245 -2.58206 13 13 12 255 
-0.048632 -0.125918 -2.58367 16 16 15 255 
-0.0487384 -0.126128 -2.58412 16 16 14 255 
-0.0484842 -0.126014 -2.58462 11 10 10 255 
-0.0485576 -0.126147 -2.585 11 11 10 255 
-0.048355 -0.126416 -2.58536 15 15 14 255 
-0.0484814 -0.12727 -2.58841 9 9 8 255 
-0.0472246 -0.126373 -2.58518 16 16 15 255 
-0.047379 -0.126299 -2.5854 16 16 14 255 
-0.0474867 -0.126188 -2.58513 14 14 13 255 
-0.0470233 -0.126441 -2.58552 18 18 16 255 
-0.0472826 -0.12637 -2.58544 18 18 16 255 
-0.0468881 -0.126239 -2.58559 28 26 24 255 
-0.0467684 -0.126444 -2.5855 38 35 32 255 
-0.0455821 -0.125987 -2.58432 51 53 51 255 
-0.0452278 -0.125781 -2.58388 55 57 53 255 
-0.0450213 -0.125642 -2.58345 53 54 51 255 
-0.0444585 -0.125708 -2.58366 42 39 34 255 
-0.0438133 -0.125475 -2.58361 34 33 31 255 
-0.0432956 -0.125686 -2.58419 30 31 30 255 
-0.0430646 -0.125682 -2.58428 27 29 27 255 
-0.0430238 -0.125837 -2.58455 30 31 29 255 
-0.0426952 -0.125837 -2.58429 24 24 23 255 
-0.0422314 -0.126084 -2.58569 21 22 21 255 
-0.0419417 -0.126212 -2.58589 12 12 11 255 
-0.0416612 -0.126265 -2.58596 6 6 6 255 
-0.0416703 -0.126197 -2.5862 6 6 6 255 
-0.041322 -0.126555 -2.58679 6 6 6 255 
-0.0415921 -0.127116 -2.58912 6 6 6 255 
-0.0412841 -0.127161 -2.58914 6 6 6 255 
-0.0408657 -0.127315 -2.58914 6 6 6 255 
-0.0335733 -0.118553 -2.56254 15 17 12 255 
-0.0333807 -0.118552 -2.56251 29 31 26 255 
-0.0323588 -0.118741 -2.56309 54 56 51 255 
-0.0323588 -0.118741 -2.56309 54 56 51 255 
-0.0321832 -0.118961 -2.56386 62 63 60 255 
-0.0325232 -0.122174 -2.57487 58 60 57 255 
-0.0324054 -0.122333 -2.57477 62 64 61 255 
-0.0320925 -0.122069 -2.57462 67 69 67 255 
-0.0323399 -0.122137 -2.57482 62 64 62 255 
-0.0322133 -0.122315 -2.57465 64 66 64 255 
-0.0320209 -0.122322 -2.57456 65 67 65 255 
-0.0315076 -0.121956 -2.57404 63 65 63 255 
-0.0316817 -0.122005 -2.57415 56 58 56 255 
-0.0311541 -0.121766 -2.57378 53 55 52 255 
-0.031004 -0.121894 -2.57361 55 57 55 255 
-0.0293227 -0.11903 -2.56492 39 40 34 255 
-0.0278192 -0.117437 -2.55989 11 12 9 255 
-0.0276609 -0.117416 -2.55979 18 19 14 255 
-0.0261103 -0.117182 -2.55925 50 53 39 255 
-0.0258947 -0.117038 -2.5589 24 26 18 255 
-0.0223809 -0.116993 -2.55928 14 14 15 255 
-0.0188891 -0.118355 -2.56452 95 78 66 255 
-0.0187599 -0.118266 -2.56437 96 86 77 255 
-0.0186315 -0.118183 -2.56426 108 103 95 255 
-0.018518 -0.118277 -2.56405 113 109 103 255 
-0.0168889 -0.117607 -2.56238 130 127 120 255 
-0.00843711 -0.120195 -2.57248 40 40 38 255 
-0.00785569 -0.120094 -2.57191 40 40 38 255 
0.0018762 -0.121595 -2.57816 23 24 23 255 
0.00195536 -0.122136 -2.57962 17 18 17 255 
0.0022202 -0.121997 -2.57983 24 24 22 255 
0.00206502 -0.121494 -2.57817 25 26 25 255 
0.00232994 -0.121472 -2.57843 26 27 26 255 
0.00285415 -0.120836 -2.57605 35 36 34 255 
0.0156126 -0.123273 -2.58623 21 22 20 255 
0.0157764 -0.123122 -2.58603 22 23 20 255 
0.0159196 -0.123419 -2.58599 23 23 21 255 
0.0161303 -0.123311 -2.58592 25 25 23 255 
0.0148522 -0.121898 -2.58088 26 27 25 255 
0.0143349 -0.121159 -2.57892 27 28 26 255 
0.0139754 -0.121127 -2.57847 29 30 28 255 
0.0142594 -0.120841 -2.57817 33 34 32 255 
0.014525 -0.120983 -2.57868 33 34 32 255 
0.0145742 -0.120902 -2.57849 36 37 35 255 
0.03705 -0.1165 -2.56805 182 180 174 255 
-0.0487253 -0.125853 -2.58262 18 18 17 255 
-0.0486288 -0.126297 -2.58362 21 21 19 255 
-0.0485194 -0.126364 -2.5844 20 20 18 255 
-0.0496279 -0.129088 -2.59206 19 19 17 255 
-0.0472527 -0.126568 -2.58486 18 18 17 255 
-0.0470765 -0.126633 -2.58524 19 19 17 255 
-0.046763 -0.126601 -2.58522 36 33 31 255 
-0.0450729 -0.12598 -2.58339 51 53 50 255 
-0.0446765 -0.125871 -2.58371 48 47 42 255 
-0.0448665 -0.125916 -2.58373 53 55 50 255 
-0.0447168 -0.126034 -2.58333 48 48 44 255 
-0.04447 -0.12597 -2.58367 42 39 34 255 
-0.0442445 -0.125985 -2.58337 40 36 32 255 
-0.043831 -0.125842 -2.58343 32 32 29 255 
-0.0431934 -0.125871 -2.58398 28 29 28 255 
-0.0433057 -0.12608 -2.58383 29 30 29 255 
-0.0426692 -0.126307 -2.585 24 24 23 255 
-0.0424402 -0.126301 -2.58524 23 24 22 255 
-0.0421261 -0.12646 -2.58561 22 22 21 255 
-0.0418309 -0.12654 -2.5859 11 11 11 255 
-0.0415302 -0.126677 -2.58624 11 11 11 255 
-0.0416311 -0.126759 -2.58653 12 12 11 255 
-0.041462 -0.127675 -2.5892 13 13 13 255 
-0.0333128 -0.118705 -2.56244 30 33 27 255 
-0.034123 -0.123081 -2.57582 59 58 56 255 
-0.0323279 -0.122529 -2.57472 61 63 61 255 
-0.032491 -0.122548 -2.57469 59 61 58 255 
-0.0321336 -0.122494 -2.57453 65 67 65 255 
-0.0316657 -0.122396 -2.57404 52 54 52 255 
-0.0315019 -0.122338 -2.57392 61 63 61 255 
-0.0315898 -0.122176 -2.57405 59 60 58 255 
-0.0314061 -0.122141 -2.574 66 68 66 255 
-0.0308913 -0.122019 -2.5734 51 53 50 255 
-0.0307801 -0.122158 -2.57323 50 52 49 255 
-0.0304485 -0.121874 -2.57319 55 57 54 255 
-0.0306455 -0.121893 -2.57329 52 54 51 255 
-0.0293149 -0.119455 -2.56513 37 38 32 255 
-0.0282969 -0.118679 -2.5629 23 23 19 255 
-0.0268677 -0.117358 -2.55906 24 26 21 255 
-0.0259325 -0.117264 -2.55875 38 40 30 255 
-0.0256668 -0.117232 -2.55898 13 13 11 255 
-0.0254442 -0.117267 -2.5592 11 11 11 255 
-0.0222738 -0.117088 -2.55895 15 17 18 255 
-0.0189447 -0.118578 -2.5646 96 77 65 255 
-0.0188535 -0.118706 -2.56445 94 78 68 255 
-0.0187973 -0.118474 -2.56434 96 83 73 255 
-0.0183986 -0.118459 -2.56409 111 108 101 255 
-0.0181102 -0.118064 -2.56289 107 105 96 255 
-0.0141378 -0.118351 -2.56468 76 77 75 255 
-0.00771268 -0.120248 -2.57176 39 40 37 255 
0.00190442 -0.12242 -2.57966 17 18 16 255 
0.00191334 -0.122473 -2.57968 17 18 16 255 
0.0018215 -0.121868 -2.5779 23 24 22 255 
0.00186784 -0.121638 -2.57745 26 27 25 255 
0.00235548 -0.121794 -2.5783 24 26 24 255 
0.0154751 -0.123836 -2.5864 21 22 20 255 
0.0156115 -0.123622 -2.58606 21 22 20 255 
0.0141084 -0.121391 -2.57798 32 32 30 255 
0.0142995 -0.121012 -2.57775 36 37 35 255 
0.0145078 -0.121346 -2.57814 34 35 33 255 
-0.0486776 -0.126061 -2.58252 20 20 18 255 
-0.0486251 -0.126316 -2.58341 19 19 18 255 
-0.0486339 -0.126903 -2.58476 16 16 15 255 
-0.0471227 -0.126897 -2.58503 18 18 17 255 
-0.0469419 -0.126983 -2.58518 22 21 19 255 
-0.0466672 -0.126825 -2.58519 37 33 31 255 
-0.0462546 -0.126743 -2.58489 42 41 38 255 
-0.0464141 -0.127029 -2.58508 38 35 32 255 
-0.0451401 -0.126257 -2.58346 49 51 48 255 
-0.0442978 -0.126174 -2.58316 41 37 32 255 
-0.0438001 -0.125916 -2.58287 33 32 29 255 
-0.0433872 -0.126469 -2.58398 29 30 29 255 
-0.0429898 -0.12664 -2.58437 29 31 29 255 
-0.0423026 -0.12668 -2.58526 21 21 20 255 
-0.0345937 -0.123407 -2.5762 52 46 43 255 
-0.0347 -0.12367 -2.57641 40 37 35 255 
-0.0342215 -0.123287 -2.57587 54 50 47 255 
-0.0340174 -0.123285 -2.57577 60 60 58 255 
-0.033271 -0.123139 -2.57524 57 59 56 255 
-0.0334743 -0.123118 -2.57537 55 57 55 255 
-0.0329456 -0.122967 -2.57492 56 58 56 255 
-0.033109 -0.123044 -2.57506 61 63 61 255 
-0.0326102 -0.122735 -2.57468 58 59 57 255 
-0.0327335 -0.122912 -2.57463 57 59 57 255 
-0.0323787 -0.122699 -2.57456 62 64 62 255 
-0.0324928 -0.122898 -2.57461 60 62 60 255 
-0.0320417 -0.122809 -2.57409 66 68 65 255 
-0.0321917 -0.1226 -2.57416 65 67 65 255 
-0.0319309 -0.122587 -2.57419 56 58 56 255 
-0.0314055 -0.122539 -2.57391 63 64 62 255 
-0.0311495 -0.122587 -2.57351 50 52 50 255 
-0.0311012 -0.122349 -2.57353 52 54 51 255 
-0.0309214 -0.122293 -2.5735 46 48 45 255 
-0.030813 -0.12241 -2.57327 47 49 47 255 
-0.0266341 -0.117329 -2.55846 29 31 26 255 
-0.0268464 -0.117465 -2.55875 28 29 24 255 
-0.0257299 -0.117431 -2.55872 23 24 19 255 
-0.0255196 -0.117391 -2.55886 12 12 11 255 
-0.019135 -0.118912 -2.56432 83 69 60 255 
-0.0186974 -0.118885 -2.56434 99 87 79 255 
-0.0165323 -0.118072 -2.56218 119 115 107 255 
-0.0164733 -0.118134 -2.56243 121 117 109 255 
0.00214112 -0.122588 -2.57918 22 23 22 255 
0.00211903 -0.122254 -2.57833 26 26 25 255 
0.00207167 -0.122242 -2.57825 25 26 24 255 
0.00209328 -0.122242 -2.57829 25 25 24 255 
0.00205255 -0.122174 -2.578 25 26 25 255 
0.0027881 -0.121375 -2.57589 30 31 29 255 
0.0140375 -0.121594 -2.5784 29 30 28 255 
0.0143022 -0.121444 -2.57745 35 36 34 255 
0.0144021 -0.121714 -2.57805 33 34 32 255 
0.0141899 -0.121393 -2.57727 35 36 34 255 
-0.0487096 -0.127302 -2.58509 17 17 17 255 
-0.0468558 -0.127198 -2.58507 24 23 21 255 
-0.0470497 -0.127133 -2.58499 18 18 16 255 
-0.0469864 -0.127384 -2.58498 18 18 17 255 
-0.0465887 -0.127187 -2.58492 38 34 32 255 
-0.0440593 -0.126414 -2.5834 33 30 26 255 
-0.0440593 -0.126414 -2.5834 34 31 26 255 
-0.0440593 -0.126414 -2.5834 34 31 26 255 
-0.0417591 -0.127314 -2.58564 15 16 15 255 
-0.0417591 -0.127314 -2.58564 15 16 15 255 
-0.0349653 -0.12384 -2.57661 14 14 14 255 
-0.0347316 -0.123967 -2.57642 32 29 27 255 
-0.0343975 -0.123761 -2.57595 43 37 33 255 
-0.034325 -0.123523 -2.5759 50 45 41 255 
-0.0342201 -0.123698 -2.57579 46 43 40 255 
-0.0342226 -0.123699 -2.57579 46 43 40 255 
-0.0340178 -0.12369 -2.57566 53 54 53 255 
-0.033782 -0.123651 -2.57548 50 51 50 255 
-0.033462 -0.123299 -2.57522 54 56 54 255 
-0.0332014 -0.123311 -2.57507 55 57 55 255 
-0.0328912 -0.123126 -2.57473 55 57 55 255 
-0.0330223 -0.123231 -2.57495 57 59 56 255 
-0.0321549 -0.123046 -2.57401 60 62 60 255 
-0.0323929 -0.123051 -2.57404 59 61 59 255 
-0.0323045 -0.122809 -2.57401 63 65 63 255 
-0.0318902 -0.123041 -2.57408 48 50 48 255 
-0.031646 -0.123045 -2.57411 40 42 40 255 
-0.0312501 -0.122875 -2.57367 55 57 55 255 
-0.0313141 -0.122688 -2.57375 61 63 60 255 
-0.031472 -0.122762 -2.5739 56 58 55 255 
-0.0310638 -0.122804 -2.57356 49 51 48 255 
-0.0308474 -0.122661 -2.57331 45 47 45 255 
-0.0307017 -0.122538 -2.57307 49 51 49 255 
-0.030544 -0.122495 -2.57302 50 52 49 255 
-0.0266947 -0.117452 -2.55818 32 32 28 255 
-0.0165084 -0.11828 -2.56214 121 118 109 255 
0.00214433 -0.123395 -2.58023 16 17 16 255 
0.00209184 -0.122664 -2.57849 25 26 25 255 
0.00209184 -0.122664 -2.57849 24 25 24 255 
0.00215466 -0.123028 -2.57947 19 19 18 255 
0.00212798 -0.123043 -2.57949 18 18 17 255 
0.00215784 -0.123031 -2.57948 19 19 18 255 
0.00212798 -0.123043 -2.57949 18 18 17 255 
0.00234931 -0.122618 -2.57857 25 26 25 255 
0.0151187 -0.124646 -2.5863 22 23 21 255 
0.0149946 -0.124604 -2.58619 22 23 21 255 
0.0148114 -0.124271 -2.58489 22 24 21 255 
0.0147269 -0.122962 -2.58123 26 26 24 255 
0.0142599 -0.121818 -2.57741 35 36 34 255 
0.0143767 -0.122142 -2.5781 31 32 30 255 
0.0261969 -0.120127 -2.57469 112 84 66 255 
-0.048618 -0.127733 -2.58517 20 20 19 255 
-0.0486208 -0.127731 -2.58517 20 20 19 255 
-0.0488197 -0.127759 -2.58533 17 17 16 255 
-0.0471738 -0.127254 -2.58451 15 16 15 255 
-0.0470633 -0.127559 -2.58471 17 18 16 255 
-0.0468373 -0.127599 -2.58497 26 24 23 255 
-0.0345011 -0.123961 -2.57591 44 39 35 255 
-0.0341306 -0.123882 -2.57568 50 49 47 255 
-0.0339228 -0.12389 -2.57561 56 57 56 255 
-0.0337173 -0.123906 -2.57557 57 59 57 255 
-0.0327932 -0.123338 -2.57425 56 58 56 255 
-0.0322789 -0.123253 -2.57399 54 56 54 255 
-0.0320053 -0.123283 -2.57401 56 58 56 255 
-0.0316665 -0.12335 -2.57396 41 43 40 255 
-0.0313209 -0.123184 -2.57378 54 56 53 255 
-0.0314952 -0.123271 -2.57385 46 48 46 255 
-0.0311257 -0.123055 -2.57365 50 52 49 255 
-0.0309492 -0.122982 -2.57351 46 48 45 255 
-0.0293582 -0.120025 -2.5642 52 53 49 255 
-0.0293385 -0.119956 -2.56424 50 51 48 255 
-0.0291088 -0.119929 -2.56431 44 43 37 255 
-0.026815 -0.123021 -2.57444 33 34 31 255 
-0.0270092 -0.123268 -2.57432 37 37 34 255 
-0.0225943 -0.117676 -2.55848 13 13 13 255 
-0.0222628 -0.117824 -2.55887 22 23 23 255 
-0.0192289 -0.119595 -2.56441 70 58 52 255 
-0.0190768 -0.119548 -2.5644 84 69 60 255 
-0.0169962 -0.118943 -2.5627 135 132 121 255 
-0.0128694 -0.119279 -2.56486 14 14 12 255 
-0.0127014 -0.11949 -2.56495 16 16 15 255 
-0.0127459 -0.119243 -2.56492 19 19 17 255 
-0.0126479 -0.119424 -2.56488 16 16 15 255 
-0.00753884 -0.121213 -2.57101 40 41 38 255 
0.0025259 -0.124052 -2.58132 21 21 20 255 
0.00243202 -0.123945 -2.58182 19 19 17 255 
0.00226236 -0.122969 -2.57853 24 25 24 255 
0.00247158 -0.122895 -2.57851 25 26 25 255 
0.00312953 -0.122103 -2.57569 33 32 29 255 
0.0160943 -0.124617 -2.58585 25 26 24 255 
0.0148948 -0.123288 -2.58123 20 20 19 255 
0.0142125 -0.121988 -2.57728 33 34 32 255 
0.0381013 -0.117674 -2.56717 173 171 164 255 
-0.048186 -0.126695 -2.5807 18 18 16 255 
-0.0482957 -0.126837 -2.58149 16 16 14 255 
-0.0484291 -0.126839 -2.58188 19 19 18 255 
-0.048496 -0.127798 -2.58439 18 18 17 255 
-0.0485013 -0.128265 -2.58552 20 19 17 255 
-0.0342407 -0.124093 -2.57575 46 43 40 255 
-0.0342788 -0.124324 -2.57574 46 42 38 255 
-0.0342306 -0.124234 -2.57582 48 44 41 255 
-0.0336058 -0.123911 -2.57514 53 55 54 255 
-0.0329691 -0.123721 -2.57437 64 66 64 255 
-0.0329916 -0.123772 -2.57442 64 66 64 255 
-0.0323914 -0.123464 -2.57387 56 58 56 255 
-0.0321337 -0.123464 -2.57393 61 62 60 255 
-0.031994 -0.123688 -2.57391 63 64 62 255 
-0.0318752 -0.123459 -2.57397 47 49 47 255 
-0.0317336 -0.123677 -2.57393 40 42 40 255 
-0.0315345 -0.123478 -2.57379 47 48 46 255 
-0.0313329 -0.123389 -2.57371 55 57 55 255 
-0.0311563 -0.123464 -2.57344 57 59 56 255 
-0.031136 -0.123235 -2.57344 57 59 56 255 
-0.0310001 -0.123421 -2.57344 58 59 57 255 
-0.0305417 -0.12313 -2.57288 55 56 53 255 
-0.0303441 -0.122908 -2.57206 57 58 55 255 
-0.0301863 -0.122804 -2.57232 57 57 55 255 
-0.0302848 -0.122968 -2.5724 56 58 55 255 
-0.0267654 -0.123358 -2.57419 37 37 34 255 
-0.0269524 -0.123407 -2.57426 34 34 32 255 
-0.0263183 -0.123258 -2.57357 14 14 13 255 
-0.0252968 -0.120103 -2.5642 9 9 9 255 
-0.0184668 -0.119622 -2.56399 111 108 101 255 
-0.0183391 -0.119552 -2.56377 105 103 98 255 
-0.0174475 -0.119126 -2.56273 140 137 127 255 
-0.0173096 -0.119018 -2.56251 134 132 121 255 
-0.017192 -0.119205 -2.56292 143 139 127 255 
-0.0127535 -0.119693 -2.56486 15 16 14 255 
-0.00739127 -0.121478 -2.57089 41 41 38 255 
0.0024854 -0.124167 -2.58109 20 20 19 255 
0.002292 -0.123181 -2.57824 25 26 25 255 
0.00229883 -0.122871 -2.57695 25 26 25 255 
0.0154225 -0.124205 -2.58326 30 30 28 255 
-0.0480703 -0.126464 -2.57994 17 17 16 255 
-0.0482122 -0.126861 -2.58092 16 16 15 255 
-0.0478733 -0.126736 -2.58072 15 16 14 255 
-0.0342458 -0.124641 -2.5757 48 44 40 255 
-0.0339964 -0.124663 -2.57564 58 57 56 255 
-0.0338897 -0.124585 -2.57546 61 62 61 255 
-0.0335616 -0.124136 -2.57456 56 58 57 255 
-0.0323403 -0.123856 -2.57388 60 62 60 255 
-0.0321145 -0.123898 -2.57394 62 64 62 255 
-0.032256 -0.123701 -2.57389 59 60 58 255 
-0.0318916 -0.123888 -2.57386 53 54 53 255 
-0.03165 -0.12387 -2.57379 43 45 43 255 
-0.0314749 -0.123804 -2.57364 50 52 50 255 
-0.0313986 -0.12359 -2.57366 51 53 51 255 
-0.0311526 -0.123695 -2.57339 55 57 54 255 
-0.0313097 -0.123747 -2.57351 53 55 53 255 
-0.0310025 -0.123547 -2.57316 55 56 53 255 
-0.0307102 -0.123203 -2.57225 60 63 60 255 
-0.0264444 -0.123677 -2.57377 16 17 15 255 
-0.0263578 -0.123592 -2.57371 14 14 13 255 
-0.0254289 -0.120159 -2.56372 10 11 10 255 
-0.0251942 -0.120221 -2.56367 19 20 19 255 
-0.0251929 -0.120087 -2.56391 12 12 11 255 
-0.0249705 -0.120095 -2.56371 12 12 12 255 
-0.0247135 -0.120201 -2.56381 13 13 12 255 
-0.0189819 -0.119973 -2.5642 67 52 45 255 
-0.0187781 -0.119837 -2.56401 75 62 54 255 
-0.0177355 -0.119565 -2.56274 114 111 103 255 
-0.01801 -0.119466 -2.56249 101 99 90 255 
-0.0178918 -0.119401 -2.56234 114 111 101 255 
-0.0174529 -0.119453 -2.56243 147 142 132 255 
-0.017367 -0.119386 -2.56289 135 132 121 255 
-0.0175004 -0.119242 -2.56244 141 137 127 255 
-0.0173129 -0.119229 -2.56247 147 143 133 255 
-0.0142998 -0.119664 -2.56386 68 69 66 255 
-0.012782 -0.119958 -2.56497 15 15 13 255 
-0.00843239 -0.122135 -2.57191 41 41 38 255 
-0.00725824 -0.121605 -2.57065 39 37 34 255 
0.0176658 -0.12723 -2.59077 25 26 25 255 
0.0183538 -0.127151 -2.59103 26 26 25 255 
0.0180321 -0.127246 -2.59095 26 27 25 255 
0.0178514 -0.126943 -2.58999 27 28 26 255 
0.0142268 -0.122786 -2.57724 32 33 31 255 
-0.0351687 -0.124797 -2.5758 15 16 15 255 
-0.034383 -0.124883 -2.57585 46 42 38 255 
-0.0340016 -0.124789 -2.57531 56 54 51 255 
-0.0341816 -0.124838 -2.57562 48 45 41 255 
-0.033877 -0.124923 -2.57551 50 47 44 255 
-0.0335892 -0.12451 -2.57481 59 59 58 255 
-0.0329948 -0.124541 -2.57449 51 48 46 255 
-0.0324704 -0.124162 -2.57414 59 60 58 255 
-0.0322386 -0.124047 -2.5738 60 61 59 255 
-0.0320141 -0.124068 -2.57381 60 62 60 255 
-0.0321243 -0.124227 -2.57369 54 53 51 255 
-0.0317828 -0.124097 -2.57383 42 43 41 255 
-0.0315683 -0.124062 -2.57378 45 47 45 255 
-0.0313827 -0.123948 -2.57345 54 55 54 255 
-0.0312416 -0.123973 -2.57345 58 59 57 255 
-0.0308097 -0.123865 -2.57308 55 56 55 255 
-0.0304112 -0.123562 -2.57197 55 56 53 255 
-0.0288529 -0.120313 -2.56305 50 51 46 255 
-0.0262802 -0.123727 -2.5735 13 14 13 255 
-0.0254209 -0.120323 -2.56357 15 17 15 255 
-0.0249706 -0.120362 -2.56325 11 13 11 255 
-0.0251934 -0.120355 -2.56344 22 24 22 255 
-0.0249632 -0.120249 -2.56354 12 12 12 255 
-0.0236526 -0.119619 -2.56185 14 15 14 255 
-0.0224502 -0.118579 -2.55835 12 14 12 255 
-0.0190556 -0.120577 -2.56472 39 35 32 255 
-0.0189452 -0.120099 -2.56381 70 56 49 255 
-0.018772 -0.120219 -2.5641 71 59 52 255 
-0.0177037 -0.119593 -2.56206 121 118 111 255 
-0.017733 -0.11963 -2.5623 114 111 105 255 
-0.0173657 -0.119533 -2.56266 130 127 118 255 
-0.0166321 -0.119384 -2.56158 121 118 111 255 
-0.0128045 -0.120222 -2.56506 15 14 12 255 
-0.00838639 -0.122423 -2.57179 41 41 38 255 
0.0132193 -0.125814 -2.58506 28 28 27 255 
0.0166123 -0.126802 -2.58816 26 27 25 255 
0.0173858 -0.127132 -2.58946 26 27 26 255 
0.0175866 -0.127048 -2.58918 28 28 27 255 
0.0143964 -0.123299 -2.57782 29 30 28 255 
0.017418 -0.122757 -2.57638 91 83 79 255 
0.0270386 -0.122663 -2.57804 15 17 13 255 
-0.0368535 -0.124316 -2.57258 11 12 12 255 
-0.0367058 -0.124234 -2.57246 13 15 14 255 
-0.034423 -0.125274 -2.57567 52 48 44 255 
-0.0335837 -0.124585 -2.57444 47 45 42 255 
-0.0337193 -0.124755 -2.57497 48 45 43 255 
-0.0333119 -0.124667 -2.57436 47 42 38 255 
-0.0320112 -0.121515 -2.56522 48 43 38 255 
-0.0320112 -0.121515 -2.56522 47 42 38 255 
-0.0329033 -0.124355 -2.57391 48 46 43 255 
-0.0317559 -0.124311 -2.57353 31 30 27 255 
-0.0274032 -0.120398 -2.56234 18 21 17 255 
-0.0270361 -0.120368 -2.56223 39 46 36 255 
-0.0254309 -0.120552 -2.5632 31 36 30 255 
-0.0254215 -0.120455 -2.56332 24 27 23 255 
-0.0249686 -0.120507 -2.56307 14 16 13 255 
-0.0251883 -0.120509 -2.56321 16 21 16 255 
-0.0244336 -0.119924 -2.56126 15 17 14 255 
-0.0245708 -0.119908 -2.56126 12 14 12 255 
-0.0238774 -0.119728 -2.56109 11 12 11 255 
-0.0238774 -0.119728 -2.56109 11 12 11 255 
-0.0228993 -0.120205 -2.5623 12 13 11 255 
-0.0223567 -0.118746 -2.55828 16 18 16 255 
-0.0222416 -0.118603 -2.55839 15 17 18 255 
-0.0220384 -0.118588 -2.55831 55 60 61 255 
-0.0186145 -0.120375 -2.5637 83 77 72 255 
-0.0183911 -0.12043 -2.56381 81 80 75 255 
-0.0179725 -0.120155 -2.56323 95 94 89 255 
-0.0178069 -0.119794 -2.56205 106 104 98 255 
-0.0178559 -0.119848 -2.56234 104 102 97 255 
-0.0175986 -0.119902 -2.56219 110 107 102 255 
-0.0176888 -0.119724 -2.56186 120 117 111 255 
-0.0165062 -0.119583 -2.56154 112 109 102 255 
-0.00793713 -0.122577 -2.57138 37 36 33 255 
-0.00802661 -0.12247 -2.57168 38 38 35 255 
-0.00800028 -0.122773 -2.57171 34 33 30 255 
-0.00731958 -0.122333 -2.57064 37 36 33 255 
-0.0074899 -0.122428 -2.57078 35 35 32 255 
0.00272749 -0.123755 -2.57628 21 20 18 255 
0.0028762 -0.123633 -2.57603 22 22 20 255 
0.0162526 -0.127058 -2.58757 23 24 23 255 
0.0173248 -0.127684 -2.59037 25 26 24 255 
0.0166481 -0.127082 -2.58788 24 25 24 255 
0.0165505 -0.126845 -2.58728 25 26 25 255 
0.0160143 -0.12619 -2.58494 26 26 25 255 
0.0273352 -0.123055 -2.57804 23 23 17 255 
0.0270143 -0.123002 -2.57786 12 14 12 255 
0.0274224 -0.12164 -2.5736 139 129 118 255 
0.0375576 -0.118863 -2.56688 164 160 152 255 
-0.0495967 -0.131343 -2.59076 65 64 53 255 
-0.0495058 -0.131496 -2.59085 54 53 45 255 
-0.0494909 -0.131419 -2.59071 58 56 47 255 
-0.0364147 -0.124535 -2.57248 17 21 17 255 
-0.0352525 -0.122965 -2.56808 30 37 30 255 
-0.036257 -0.124652 -2.57284 17 21 18 255 
-0.0349038 -0.12511 -2.57447 19 22 18 255 
-0.0346467 -0.12551 -2.57594 39 37 33 255 
-0.0346593 -0.125682 -2.57575 31 31 27 255 
-0.0344646 -0.125536 -2.57578 48 44 40 255 
-0.0328413 -0.122367 -2.56658 58 51 45 255 
-0.031943 -0.120883 -2.5628 46 44 37 255 
-0.0301598 -0.121029 -2.56357 43 43 37 255 
-0.0303921 -0.123455 -2.57046 35 36 30 255 
-0.0274319 -0.120542 -2.56209 16 20 15 255 
-0.0272134 -0.120473 -2.5622 33 38 31 255 
-0.0254364 -0.120684 -2.5628 31 40 30 255 
-0.0256112 -0.120672 -2.56274 26 33 24 255 
-0.0251915 -0.120733 -2.56272 17 25 16 255 
-0.025181 -0.120607 -2.56296 18 25 17 255 
-0.0241269 -0.119886 -2.56104 15 17 14 255 
-0.023293 -0.120225 -2.56158 14 16 13 255 
-0.0223961 -0.119135 -2.55859 20 24 19 255 
-0.0194246 -0.121022 -2.56485 13 13 12 255 
-0.0194727 -0.121211 -2.56497 14 15 14 255 
-0.0190651 -0.120993 -2.56432 45 38 34 255 
-0.0189449 -0.120912 -2.5645 59 47 43 255 
-0.018342 -0.120608 -2.56348 79 79 75 255 
-0.0179558 -0.120478 -2.56299 56 56 54 255 
-0.0181554 -0.120568 -2.56344 67 68 65 255 
-0.0179604 -0.120454 -2.5635 70 70 67 255 
-0.0175477 -0.120077 -2.56214 95 93 89 255 
-0.0174024 -0.120029 -2.56195 103 101 97 255 
-0.0169294 -0.119726 -2.56141 125 120 113 255 
-0.0167952 -0.11996 -2.56169 117 113 107 255 
-0.00789834 -0.122657 -2.57093 30 28 25 255 
-0.00770197 -0.122536 -2.57085 31 29 27 255 
0.00270451 -0.123932 -2.57593 21 20 18 255 
0.0164397 -0.127008 -2.58714 23 24 23 255 
0.0269372 -0.123247 -2.57767 20 20 16 255 
0.0270024 -0.123637 -2.57775 10 12 10 255 
0.0375434 -0.119196 -2.56678 159 153 144 255 
-0.049474 -0.131663 -2.59044 21 24 17 255 
-0.0455502 -0.126868 -2.57775 34 34 27 255 
-0.036563 -0.12473 -2.57223 26 33 25 255 
-0.034952 -0.12311 -2.5681 36 45 35 255 
-0.0349663 -0.123253 -2.56829 34 44 33 255 
-0.0346976 -0.123438 -2.56847 30 37 29 255 
-0.0347699 -0.123407 -2.56866 35 43 34 255 
-0.0345159 -0.125774 -2.57531 43 44 37 255 
-0.0320666 -0.121687 -2.56438 42 42 33 255 
-0.0319909 -0.1215 -2.56387 41 41 33 255 
-0.0313909 -0.121259 -2.56322 28 34 25 255 
-0.0303516 -0.121306 -2.56301 28 34 27 255 
-0.0300604 -0.121199 -2.56298 24 29 21 255 
-0.0298458 -0.121357 -2.56357 24 29 22 255 
-0.0291296 -0.121064 -2.56264 24 30 22 255 
-0.0274732 -0.120754 -2.56238 20 24 18 255 
-0.0267207 -0.12072 -2.56183 22 29 20 255 
-0.0246701 -0.120195 -2.56056 24 31 23 255 
-0.0242966 -0.120053 -2.56059 22 27 21 255 
-0.0239761 -0.119964 -2.55999 23 29 22 255 
-0.02385 -0.119911 -2.56045 14 18 14 255 
-0.0224895 -0.119591 -2.55927 23 29 22 255 
-0.0217373 -0.119145 -2.55805 24 31 29 255 
-0.0205418 -0.11959 -2.55962 14 16 14 255 
-0.0194129 -0.121404 -2.56482 13 14 12 255 
-0.0191312 -0.121089 -2.56386 38 32 29 255 
-0.0188043 -0.121075 -2.56378 44 37 33 255 
-0.0188653 -0.120836 -2.56369 52 42 37 255 
-0.0188394 -0.12103 -2.56365 44 37 33 255 
-0.018258 -0.120867 -2.5633 46 44 42 255 
-0.0172859 -0.120027 -2.56157 106 103 100 255 
-0.00795106 -0.123442 -2.57227 30 26 23 255 
-0.00778773 -0.123344 -2.57211 29 26 23 255 
-0.00764213 -0.122878 -2.57065 22 21 19 255 
0.0161645 -0.127367 -2.58689 21 22 21 255 
0.0269438 -0.124866 -2.58045 9 10 10 255 
0.0264285 -0.124337 -2.57881 8 8 7 255 
0.025554 -0.123425 -2.57606 10 10 9 255 
0.0276382 -0.122283 -2.57321 124 94 72 255 
0.0280519 -0.122193 -2.57331 127 95 74 255 
0.0285357 -0.122255 -2.57322 123 95 75 255 
-0.0325607 -0.122198 -2.56468 44 47 38 255 
-0.0322456 -0.121967 -2.56432 39 43 33 255 
-0.0320811 -0.121823 -2.56354 34 39 30 255 
-0.0320046 -0.121753 -2.56334 32 37 29 255 
-0.0320505 -0.12182 -2.56388 36 39 30 255 
-0.0315745 -0.12133 -2.56275 31 36 27 255 
-0.0316672 -0.121574 -2.563 28 33 25 255 
-0.0299796 -0.121358 -2.56239 29 34 28 255 
-0.0294519 -0.121302 -2.56291 26 32 24 255 
-0.0285632 -0.120978 -2.5621 14 19 13 255 
-0.028318 -0.120993 -2.56225 22 25 20 255 
-0.0281466 -0.12095 -2.56205 27 31 25 255 
-0.0281754 -0.121045 -2.56177 24 29 22 255 
-0.0270003 -0.120381 -2.56021 21 26 19 255 
-0.0242951 -0.120179 -2.56023 25 32 25 255 
-0.022473 -0.119759 -2.55928 19 23 18 255 
-0.0220479 -0.119462 -2.55802 47 55 52 255 
-0.0216526 -0.119299 -2.55794 35 43 42 255 
-0.0210111 -0.119291 -2.55798 21 27 19 255 
-0.0190396 -0.121579 -2.56459 41 39 37 255 
-0.0190271 -0.121663 -2.56486 39 36 34 255 
-0.0187625 -0.121024 -2.56344 42 35 33 255 
-0.0187625 -0.121024 -2.56344 43 35 32 255 
-0.0178452 -0.120413 -2.56184 50 46 44 255 
-0.017516 -0.12036 -2.56175 64 59 57 255 
-0.0165187 -0.120512 -2.5619 74 61 58 255 
-0.0162544 -0.12044 -2.56198 86 76 71 255 
-0.0161017 -0.120508 -2.5618 73 60 54 255 
-0.00822304 -0.123662 -2.57212 30 27 23 255 
0.0103072 -0.124849 -2.57772 17 18 17 255 
0.0133471 -0.126217 -2.58139 17 18 17 255 
0.0256984 -0.12487 -2.5798 13 15 13 255 
0.0261735 -0.124645 -2.57854 15 16 15 255 
0.0263686 -0.124564 -2.57841 15 16 15 255 
0.0264332 -0.124603 -2.5788 14 15 14 255 
0.0284482 -0.122453 -2.57348 126 95 74 255 
0.0387919 -0.125694 -2.58291 20 22 20 255 
0.0385325 -0.125558 -2.58249 21 23 21 255 
0.0374878 -0.119906 -2.56654 130 102 84 255 
0.0381682 -0.119698 -2.56671 132 105 90 255 
0.0380865 -0.119529 -2.56618 127 99 84 255 
-0.04593 -0.126639 -2.57449 19 22 14 255 
-0.0462855 -0.126873 -2.57559 20 24 15 255 
-0.0457271 -0.126702 -2.57478 21 24 16 255 
-0.0457409 -0.126755 -2.57482 24 27 19 255 
-0.0454464 -0.126457 -2.57447 20 25 15 255 
-0.0417267 -0.12433 -2.56916 30 36 33 255 
-0.0415719 -0.124529 -2.5692 24 28 23 255 
-0.0322993 -0.121944 -2.56315 20 25 19 255 
-0.032517 -0.122058 -2.56402 38 41 33 255 
-0.0320313 -0.121938 -2.56304 15 20 14 255 
-0.0318844 -0.121844 -2.56307 23 28 22 255 
-0.0320096 -0.121971 -2.56349 26 31 24 255 
-0.0310951 -0.121124 -2.56098 12 15 11 255 
-0.0299351 -0.121401 -2.5618 15 19 15 255 
-0.0299332 -0.121302 -2.56204 26 30 25 255 
-0.0296885 -0.121249 -2.56184 12 15 10 255 
-0.0293637 -0.121209 -2.56156 12 15 11 255 
-0.0293765 -0.121153 -2.56148 13 15 12 255 
-0.0289121 -0.120613 -2.5599 18 22 18 255 
-0.0292074 -0.120965 -2.56086 14 17 13 255 
-0.0289416 -0.120731 -2.56013 17 20 16 255 
-0.0289418 -0.120724 -2.56011 17 20 16 255 
-0.0286785 -0.120407 -2.55917 19 23 18 255 
-0.028666 -0.121041 -2.56152 20 25 19 255 
-0.0282347 -0.120388 -2.55914 20 24 18 255 
-0.0282331 -0.12053 -2.56009 18 23 16 255 
-0.0280596 -0.120306 -2.55932 18 24 17 255 
-0.027879 -0.121142 -2.562 23 29 21 255 
-0.0243571 -0.120266 -2.55992 24 32 25 255 
-0.022643 -0.119895 -2.55878 9 13 8 255 
-0.0216525 -0.119482 -2.55785 50 59 58 255 
-0.0214511 -0.119508 -2.55789 60 67 65 255 
-0.0212912 -0.119535 -2.55773 32 40 32 255 
-0.0203052 -0.1199 -2.55901 26 32 23 255 
-0.0187946 -0.119819 -2.55935 46 38 33 255 
-0.017431 -0.121045 -2.56297 49 39 36 255 
-0.0174964 -0.121222 -2.56345 49 40 37 255 
-0.0165642 -0.120686 -2.56175 60 47 42 255 
-0.0127512 -0.121304 -2.56416 15 16 14 255 
-0.0125088 -0.121554 -2.56421 13 13 12 255 
0.0145086 -0.126412 -2.58141 20 22 19 255 
0.0146375 -0.126136 -2.58121 17 18 16 255 
0.0252455 -0.124932 -2.57817 14 15 14 255 
0.0256573 -0.124673 -2.5783 14 15 15 255 
0.0262817 -0.124991 -2.57868 14 15 14 255 
0.0261401 -0.124703 -2.57855 15 16 15 255 
0.026039 -0.125103 -2.57868 14 16 15 255 
0.0263177 -0.123134 -2.57343 120 95 75 255 
0.0374047 -0.125346 -2.58152 22 24 22 255 
0.0370583 -0.122754 -2.57338 19 20 20 255 
0.0369052 -0.122449 -2.57278 26 26 25 255 
0.0379629 -0.119823 -2.56617 129 101 81 255 
0.0386097 -0.119962 -2.5661 126 99 80 255 
-0.0442968 -0.124779 -2.5689 16 19 13 255 
-0.0457787 -0.127014 -2.5747 20 22 17 255 
-0.0338679 -0.123383 -2.56617 29 33 26 255 
-0.0326457 -0.122244 -2.56345 21 27 19 255 
-0.0327293 -0.122335 -2.56394 23 29 21 255 
-0.0326433 -0.12197 -2.56275 23 29 21 255 
-0.0326453 -0.121986 -2.56279 22 28 20 255 
-0.0326453 -0.121986 -2.56279 22 28 20 255 
-0.0321172 -0.121565 -2.56148 16 21 15 255 
-0.0320993 -0.121996 -2.56284 10 15 9 255 
-0.0307961 -0.121194 -2.56098 11 14 10 255 
-0.0309336 -0.12135 -2.56089 15 17 13 255 
-0.0309467 -0.121386 -2.56099 13 16 11 255 
-0.0297904 -0.121546 -2.56152 16 19 16 255 
-0.0297883 -0.121378 -2.56161 9 12 9 255 
-0.0296416 -0.121324 -2.56134 9 11 8 255 
-0.0293066 -0.121166 -2.56091 14 16 13 255 
-0.0294551 -0.121272 -2.56123 11 13 10 255 
-0.0289945 -0.121069 -2.56031 14 18 15 255 
-0.0286188 -0.120556 -2.55896 11 15 10 255 
-0.0286184 -0.120566 -2.55898 11 14 10 255 
-0.0287811 -0.120483 -2.5591 14 17 13 255 
-0.0286005 -0.120533 -2.55889 11 15 11 255 
-0.0282663 -0.120495 -2.55875 18 22 17 255 
-0.0283911 -0.120504 -2.55876 13 17 12 255 
-0.0283777 -0.120424 -2.55893 14 18 13 255 
-0.0284765 -0.120478 -2.55901 13 17 12 255 
-0.0280588 -0.12039 -2.55858 21 26 20 255 
-0.0272056 -0.120038 -2.5576 17 20 16 255 
-0.0226483 -0.120004 -2.55854 12 17 13 255 
-0.0222286 -0.119876 -2.55821 20 24 18 255 
-0.0216733 -0.119812 -2.55773 44 52 53 255 
-0.0215624 -0.119612 -2.55768 59 68 69 255 
-0.0212738 -0.119781 -2.55757 28 35 27 255 
-0.0200188 -0.120153 -2.55902 44 48 39 255 
-0.0184719 -0.120444 -2.55974 41 38 30 255 
-0.0165504 -0.120863 -2.5616 48 38 34 255 
-0.0126947 -0.121592 -2.56423 12 13 10 255 
-0.0124879 -0.121588 -2.56431 13 13 12 255 
-0.00846678 -0.124694 -2.57261 23 22 19 255 
-0.00840219 -0.124305 -2.57166 26 24 21 255 
0.00997401 -0.124976 -2.57544 29 31 29 255 
0.00997401 -0.124976 -2.57544 28 30 28 255 
0.00997401 -0.124976 -2.57544 28 30 28 255 
0.0138321 -0.124331 -2.5741 33 29 26 255 
0.0254364 -0.125061 -2.57748 41 42 34 255 
0.0265524 -0.125259 -2.57815 35 35 30 255 
0.0258854 -0.12444 -2.57584 31 33 27 255 
0.0377573 -0.125022 -2.57924 17 19 17 255 
0.0378684 -0.124984 -2.57937 17 18 17 255 
0.0369333 -0.124838 -2.57843 16 18 17 255 
0.0362398 -0.123749 -2.57518 21 22 21 255 
