ply
format ascii 1.0
comment VCGLIB generated
element vertex 880
property float x
property float y
property float z
property float nx
property float ny
property float nz
property int flags
property uchar red
property uchar green
property uchar blue
property uchar alpha
element face 0
property list uchar int vertex_indices
end_header
-0.00551519 -0.139218 -6.73739 0 0 0 16 91 87 82 255 
-0.00394153 -0.139861 -6.74115 0 0 0 16 100 95 93 255 
-0.00305239 -0.138498 -6.74384 0 0 0 16 50 46 43 255 
-0.00212252 -0.139955 -6.74595 0 0 0 16 49 47 43 255 
-0.00111722 -0.138623 -6.7482 0 0 0 16 70 67 64 255 
0.00087308 -0.13902 -6.75185 0 0 0 16 58 56 48 255 
-8.12707e-05 -0.137354 -6.7505 0 0 0 16 69 65 60 255 
0.0092423 -0.140351 -6.75388 0 0 0 16 115 113 108 255 
0.0107876 -0.139871 -6.75145 0 0 0 16 120 117 111 255 
0.0129965 -0.141841 -6.75511 0 0 0 16 161 160 149 255 
0.0145677 -0.140632 -6.75726 0 0 0 16 170 172 166 255 
0.015668 -0.141642 -6.75935 0 0 0 16 167 170 166 255 
0.0187411 -0.139475 -6.76484 0 0 0 16 99 97 101 255 
0.0225051 -0.14028 -6.77303 0 0 0 16 90 88 80 255 
0.0237545 -0.138837 -6.77651 0 0 0 16 89 87 79 255 
0.0231275 -0.138132 -6.78774 0 0 0 16 104 101 96 255 
0.0231275 -0.138132 -6.78774 0 0 0 16 104 101 96 255 
0.0247741 -0.137304 -6.78663 0 0 0 16 107 104 100 255 
0.026187 -0.138609 -6.789 0 0 0 16 121 118 111 255 
0.0276908 -0.137117 -6.79177 0 0 0 16 140 138 129 255 
0.0292205 -0.138581 -6.79252 0 0 0 16 170 168 157 255 
0.0327898 -0.139082 -6.79582 0 0 0 16 171 167 157 255 
0.0346611 -0.137973 -6.79756 0 0 0 16 161 156 147 255 
0.0375018 -0.139046 -6.7995 0 0 0 16 163 158 146 255 
0.0636827 -0.134567 -6.86476 0 0 0 16 88 84 79 255 
0.0578802 -0.129918 -6.89141 0 0 0 16 49 50 50 255 
0.0596851 -0.128552 -6.8931 0 0 0 16 56 56 48 255 
0.0616328 -0.128524 -6.89631 0 0 0 16 43 43 42 255 
0.0626709 -0.130156 -6.89924 0 0 0 16 59 58 51 255 
0.067907 -0.129916 -6.90065 0 0 0 16 64 62 61 255 
0.0763084 -0.131116 -6.90171 0 0 0 16 151 155 148 255 
0.0788789 -0.131344 -6.907 0 0 0 16 147 149 148 255 
0.0798754 -0.129833 -6.90991 0 0 0 16 123 128 134 255 
-0.171057 -0.139354 -6.52339 0 0 0 16 55 51 46 255 
-0.0939313 -0.150824 -6.55562 0 0 0 16 194 192 184 255 
-0.0927329 -0.152116 -6.55742 0 0 0 16 193 189 181 255 
-0.0917458 -0.150609 -6.56101 0 0 0 16 189 183 173 255 
-0.057067 -0.150922 -6.61037 0 0 0 16 125 123 117 255 
-0.051638 -0.15166 -6.61275 0 0 0 16 186 179 165 255 
-0.0484429 -0.152173 -6.61553 0 0 0 16 172 170 163 255 
-0.0449647 -0.152185 -6.6198 0 0 0 16 185 185 179 255 
-0.0435246 -0.151178 -6.62004 0 0 0 16 186 185 179 255 
-0.0398499 -0.151279 -6.62693 0 0 0 16 183 178 168 255 
-0.0400093 -0.151213 -6.62737 0 0 0 16 178 172 161 255 
-0.0400093 -0.151213 -6.62737 0 0 0 16 178 172 161 255 
-0.0383814 -0.152316 -6.62964 0 0 0 16 171 165 153 255 
-0.0204743 -0.151354 -6.6548 0 0 0 16 192 187 177 255 
-0.0189269 -0.145193 -6.70188 0 0 0 16 30 30 27 255 
-0.0162954 -0.145357 -6.70638 0 0 0 16 90 88 84 255 
-0.013788 -0.144907 -6.70396 0 0 0 16 99 96 91 255 
-0.000977861 -0.146982 -6.72006 0 0 0 16 52 51 50 255 
-0.00639108 -0.143488 -6.73498 0 0 0 16 56 52 48 255 
-0.00557163 -0.142115 -6.73732 0 0 0 16 92 88 83 255 
-0.00319424 -0.141246 -6.74381 0 0 0 16 45 41 38 255 
-0.00220402 -0.142515 -6.74599 0 0 0 16 43 42 37 255 
0.000977891 -0.14172 -6.75205 0 0 0 16 57 56 47 255 
0.00828243 -0.14315 -6.74891 0 0 0 16 119 115 109 255 
0.00319758 -0.140404 -6.75232 0 0 0 16 106 102 92 255 
0.0107857 -0.143475 -6.75163 0 0 0 16 125 122 114 255 
0.00990915 -0.141927 -6.75472 0 0 0 16 117 115 110 255 
0.0143237 -0.143298 -6.75662 0 0 0 16 167 170 164 255 
0.0158419 -0.14437 -6.75887 0 0 0 16 187 185 178 255 
0.0172161 -0.14261 -6.76248 0 0 0 16 159 161 163 255 
0.0211637 -0.14178 -6.76948 0 0 0 16 93 91 86 255 
0.0222489 -0.143088 -6.77199 0 0 0 16 91 90 81 255 
0.0235011 -0.14162 -6.77578 0 0 0 16 92 90 82 255 
0.0247413 -0.140089 -6.78587 0 0 0 16 108 106 102 255 
0.0230046 -0.141098 -6.78598 0 0 0 16 105 102 98 255 
0.0261632 -0.141314 -6.78871 0 0 0 16 121 118 111 255 
0.0277275 -0.139802 -6.79172 0 0 0 16 139 138 129 255 
0.0292563 -0.141267 -6.79245 0 0 0 16 172 170 158 255 
0.0308629 -0.14021 -6.79423 0 0 0 16 182 179 168 255 
0.0324716 -0.141893 -6.79562 0 0 0 16 173 169 158 255 
0.0343849 -0.140657 -6.79709 0 0 0 16 164 159 150 255 
0.0362472 -0.14151 -6.7984 0 0 0 16 161 156 147 255 
0.0380708 -0.142841 -6.8 0 0 0 16 170 166 152 255 
0.0617643 -0.135954 -6.86321 0 0 0 16 87 83 85 255 
0.0636792 -0.137306 -6.86481 0 0 0 16 92 87 83 255 
0.0747369 -0.139202 -6.87433 0 0 0 16 88 86 82 255 
0.0615622 -0.131448 -6.89559 0 0 0 16 43 42 42 255 
0.0635409 -0.132025 -6.90117 0 0 0 16 77 73 68 255 
0.067436 -0.131125 -6.9014 0 0 0 16 63 61 60 255 
0.0763038 -0.136383 -6.89277 0 0 0 16 82 84 77 255 
0.0748262 -0.133696 -6.89868 0 0 0 16 99 102 93 255 
0.0782346 -0.134064 -6.90693 0 0 0 16 141 142 140 255 
0.0789799 -0.132423 -6.91046 0 0 0 16 128 139 141 255 
0.0804541 -0.134119 -6.91219 0 0 0 16 45 47 59 255 
-0.173179 -0.140201 -6.52349 0 0 0 16 92 82 69 255 
-0.0937913 -0.153315 -6.55562 0 0 0 16 191 187 180 255 
-0.0927952 -0.154616 -6.55733 0 0 0 16 193 189 181 255 
-0.0503381 -0.153231 -6.61333 0 0 0 16 175 170 160 255 
-0.0481041 -0.155235 -6.61587 0 0 0 16 176 174 167 255 
-0.0447992 -0.155429 -6.61956 0 0 0 16 183 184 179 255 
-0.041601 -0.155203 -6.62478 0 0 0 16 190 187 179 255 
-0.0402401 -0.153828 -6.62677 0 0 0 16 182 178 169 255 
-0.021438 -0.155169 -6.65222 0 0 0 16 190 186 176 255 
-0.0205398 -0.153839 -6.65482 0 0 0 16 191 187 177 255 
-0.0203532 -0.146164 -6.70034 0 0 0 16 27 27 24 255 
-0.0194264 -0.147704 -6.70183 0 0 0 16 34 34 31 255 
-0.0179918 -0.146736 -6.70335 0 0 0 16 63 60 55 255 
-0.016248 -0.148595 -6.70318 0 0 0 16 95 92 86 255 
-0.0150429 -0.147842 -6.70547 0 0 0 16 96 93 88 255 
-0.00568823 -0.144658 -6.73694 0 0 0 16 92 88 82 255 
-0.00469212 -0.143321 -6.7391 0 0 0 16 107 102 97 255 
-0.00307429 -0.144037 -6.74322 0 0 0 16 52 50 46 255 
-0.00245024 -0.145244 -6.74593 0 0 0 16 73 71 66 255 
-0.00144181 -0.143978 -6.74815 0 0 0 16 77 75 68 255 
-0.000396198 -0.142788 -6.75058 0 0 0 16 45 44 36 255 
0.00931917 -0.144855 -6.74951 0 0 0 16 123 119 113 255 
0.0085027 -0.144844 -6.75387 0 0 0 16 106 105 102 255 
0.0115434 -0.144722 -6.75448 0 0 0 16 130 130 121 255 
0.0128372 -0.147182 -6.755 0 0 0 16 146 145 135 255 
0.0143497 -0.145678 -6.75746 0 0 0 16 176 175 164 255 
0.0160053 -0.147193 -6.75875 0 0 0 16 191 189 182 255 
0.0173528 -0.145155 -6.76302 0 0 0 16 161 163 166 255 
0.0174353 -0.145404 -6.76191 0 0 0 16 171 169 167 255 
0.0186399 -0.146492 -6.76538 0 0 0 16 96 98 104 255 
0.0209798 -0.144667 -6.76791 0 0 0 16 109 106 102 255 
0.0205564 -0.144884 -6.76745 0 0 0 16 111 109 106 255 
0.0217079 -0.146034 -6.7706 0 0 0 16 86 85 78 255 
0.0219404 -0.14579 -6.77161 0 0 0 16 81 79 73 255 
0.0232214 -0.144368 -6.7752 0 0 0 16 100 98 91 255 
0.024482 -0.145821 -6.77667 0 0 0 16 93 92 87 255 
0.0246137 -0.142801 -6.78533 0 0 0 16 103 102 97 255 
0.0260288 -0.144351 -6.78594 0 0 0 16 112 110 104 255 
0.0256934 -0.144353 -6.78547 0 0 0 16 118 115 107 255 
0.025577 -0.143342 -6.78599 0 0 0 16 100 99 94 255 
0.0277032 -0.142312 -6.79173 0 0 0 16 137 136 128 255 
0.030555 -0.142807 -6.79419 0 0 0 16 179 176 164 255 
0.0322211 -0.144589 -6.79499 0 0 0 16 176 173 163 255 
0.0345285 -0.145504 -6.79691 0 0 0 16 164 161 154 255 
0.0342339 -0.143317 -6.79695 0 0 0 16 162 158 149 255 
0.0362898 -0.144186 -6.79838 0 0 0 16 160 156 148 255 
0.0379962 -0.145581 -6.7995 0 0 0 16 168 164 150 255 
0.0593976 -0.140216 -6.86082 0 0 0 16 131 129 130 255 
0.0614399 -0.138622 -6.86338 0 0 0 16 94 90 92 255 
0.0617577 -0.138699 -6.86321 0 0 0 16 93 88 90 255 
0.0651708 -0.139102 -6.86624 0 0 0 16 101 97 90 255 
0.0685731 -0.139705 -6.86841 0 0 0 16 147 144 135 255 
0.0705804 -0.141206 -6.87057 0 0 0 16 138 136 134 255 
0.0728055 -0.140177 -6.87261 0 0 0 16 93 91 89 255 
0.0741987 -0.141783 -6.87462 0 0 0 16 97 96 93 255 
0.0759887 -0.140854 -6.87614 0 0 0 16 102 101 97 255 
0.0615782 -0.132783 -6.89931 0 0 0 16 38 37 32 255 
0.0628478 -0.134763 -6.90144 0 0 0 16 78 76 66 255 
0.066738 -0.134744 -6.90217 0 0 0 16 77 76 74 255 
0.0736072 -0.136071 -6.89971 0 0 0 16 104 106 100 255 
0.0752617 -0.137758 -6.90122 0 0 0 16 136 138 131 255 
0.0779206 -0.136822 -6.90592 0 0 0 16 154 153 148 255 
0.0784515 -0.135191 -6.91062 0 0 0 16 139 143 149 255 
-0.176359 -0.142238 -6.52183 0 0 0 16 123 120 113 255 
-0.174873 -0.143884 -6.52218 0 0 0 16 115 105 92 255 
-0.173714 -0.14271 -6.52444 0 0 0 16 97 89 79 255 
-0.171583 -0.14423 -6.52412 0 0 0 16 77 72 64 255 
-0.17375 -0.142295 -6.52455 0 0 0 16 95 87 77 255 
-0.0939175 -0.155663 -6.55634 0 0 0 16 188 186 179 255 
-0.0928879 -0.156987 -6.55793 0 0 0 16 190 187 180 255 
-0.0918373 -0.155779 -6.55972 0 0 0 16 186 181 173 255 
-0.0685138 -0.156644 -6.58917 0 0 0 16 178 169 155 255 
-0.066756 -0.155266 -6.59178 0 0 0 16 130 123 116 255 
-0.0499716 -0.156313 -6.61472 0 0 0 16 174 169 160 255 
-0.0501595 -0.155365 -6.61473 0 0 0 16 172 166 157 255 
-0.0464997 -0.156652 -6.61739 0 0 0 16 182 183 176 255 
-0.0414866 -0.157718 -6.62477 0 0 0 16 192 188 180 255 
-0.0401211 -0.156369 -6.62659 0 0 0 16 182 176 167 255 
-0.0192893 -0.155792 -6.66106 0 0 0 16 197 194 184 255 
-0.0211079 -0.148701 -6.70023 0 0 0 16 52 52 48 255 
-0.0166526 -0.150466 -6.70442 0 0 0 16 98 95 90 255 
-0.00620771 -0.146208 -6.73481 0 0 0 16 61 58 55 255 
-0.00580729 -0.1477 -6.73698 0 0 0 16 81 78 74 255 
-0.00488541 -0.146104 -6.73924 0 0 0 16 108 102 99 255 
-0.00372373 -0.14795 -6.7411 0 0 0 16 92 89 85 255 
-0.000712346 -0.145467 -6.75022 0 0 0 16 71 70 62 255 
0.00721875 -0.148207 -6.74836 0 0 0 16 114 110 105 255 
0.0087504 -0.147458 -6.7485 0 0 0 16 123 119 114 255 
0.00987502 -0.148867 -6.75081 0 0 0 16 121 118 112 255 
0.0113427 -0.148554 -6.75331 0 0 0 16 133 131 122 255 
0.013192 -0.149729 -6.75624 0 0 0 16 155 155 144 255 
0.0144487 -0.148293 -6.7575 0 0 0 16 179 178 168 255 
0.0161934 -0.149518 -6.76056 0 0 0 16 180 178 173 255 
0.017569 -0.147866 -6.76326 0 0 0 16 166 168 172 255 
0.0195103 -0.148314 -6.76847 0 0 0 16 37 39 39 255 
0.0229119 -0.147347 -6.77291 0 0 0 16 105 103 97 255 
0.0241178 -0.148498 -6.77635 0 0 0 16 93 91 87 255 
0.0245732 -0.145568 -6.78544 0 0 0 16 102 101 98 255 
0.0254404 -0.147427 -6.78513 0 0 0 16 109 108 104 255 
0.0252106 -0.145994 -6.78599 0 0 0 16 99 98 95 255 
0.0269907 -0.145809 -6.78812 0 0 0 16 113 113 107 255 
0.0275092 -0.144986 -6.79139 0 0 0 16 129 128 120 255 
0.0287969 -0.146929 -6.79164 0 0 0 16 147 145 136 255 
0.030526 -0.145765 -6.79329 0 0 0 16 172 171 160 255 
0.0303251 -0.145877 -6.79307 0 0 0 16 171 169 159 255 
0.0320149 -0.147265 -6.79468 0 0 0 16 180 177 167 255 
0.0362552 -0.146869 -6.79818 0 0 0 16 159 156 149 255 
0.0381914 -0.148178 -6.7999 0 0 0 16 169 166 151 255 
0.0442633 -0.145008 -6.82807 0 0 0 16 51 50 60 255 
0.0449768 -0.143388 -6.83079 0 0 0 16 43 38 36 255 
0.0546679 -0.143519 -6.85072 0 0 0 16 106 109 107 255 
0.0579382 -0.14159 -6.85922 0 0 0 16 160 160 162 255 
0.0594421 -0.142988 -6.86123 0 0 0 16 142 140 138 255 
0.0607132 -0.14164 -6.86352 0 0 0 16 102 99 104 255 
0.0646476 -0.141696 -6.86642 0 0 0 16 97 96 91 255 
0.0665214 -0.14322 -6.8683 0 0 0 16 125 123 114 255 
0.0683299 -0.142263 -6.86899 0 0 0 16 151 148 140 255 
0.0699988 -0.14381 -6.87057 0 0 0 16 157 154 149 255 
0.0722158 -0.142786 -6.87264 0 0 0 16 102 101 100 255 
0.073361 -0.144484 -6.8739 0 0 0 16 86 85 83 255 
0.0748616 -0.143916 -6.87375 0 0 0 16 108 107 100 255 
0.0617317 -0.135882 -6.89847 0 0 0 16 35 34 29 255 
0.0734049 -0.138916 -6.8995 0 0 0 16 96 98 96 255 
0.0750142 -0.140581 -6.90107 0 0 0 16 125 127 123 255 
0.0770447 -0.138853 -6.90313 0 0 0 16 155 156 150 255 
0.0778648 -0.140514 -6.90614 0 0 0 16 160 159 154 255 
0.0787277 -0.138602 -6.91 0 0 0 16 136 137 143 255 
0.0804183 -0.139903 -6.91235 0 0 0 16 60 61 70 255 
0.0817278 -0.138174 -6.91502 0 0 0 16 48 48 50 255 
-0.176427 -0.144843 -6.52236 0 0 0 16 127 118 105 255 
-0.173896 -0.145206 -6.52453 0 0 0 16 93 83 70 255 
-0.174704 -0.145959 -6.52474 0 0 0 16 96 85 73 255 
-0.0938996 -0.158083 -6.5565 0 0 0 16 188 186 180 255 
-0.090955 -0.157047 -6.56167 0 0 0 16 185 176 163 255 
-0.0700609 -0.157936 -6.58773 0 0 0 16 182 170 151 255 
-0.0685867 -0.159347 -6.58908 0 0 0 16 184 174 158 255 
-0.065212 -0.159517 -6.59176 0 0 0 16 104 97 91 255 
-0.0499696 -0.158791 -6.61463 0 0 0 16 175 170 161 255 
-0.048424 -0.160464 -6.61558 0 0 0 16 179 176 167 255 
-0.0467359 -0.159214 -6.61732 0 0 0 16 184 183 175 255 
-0.0419226 -0.160327 -6.62441 0 0 0 16 196 192 184 255 
-0.039879 -0.158919 -6.62645 0 0 0 16 181 176 166 255 
-0.0216607 -0.159865 -6.6518 0 0 0 16 189 185 175 255 
-0.0206749 -0.15851 -6.65467 0 0 0 16 191 187 177 255 
-0.0165657 -0.153076 -6.70433 0 0 0 16 97 93 88 255 
-0.0183575 -0.152284 -6.70315 0 0 0 16 47 46 41 255 
-0.0152955 -0.15161 -6.70659 0 0 0 16 96 93 89 255 
-0.00172878 -0.154259 -6.717 0 0 0 16 84 85 85 255 
-0.000491603 -0.153153 -6.71897 0 0 0 16 34 35 33 255 
-0.0067278 -0.148835 -6.73461 0 0 0 16 34 33 31 255 
-0.00546373 -0.149242 -6.73914 0 0 0 16 110 105 101 255 
-0.0037006 -0.149219 -6.74379 0 0 0 16 38 38 35 255 
-0.0026524 -0.147985 -6.74594 0 0 0 16 34 34 31 255 
0.00825606 -0.15002 -6.74796 0 0 0 16 118 115 110 255 
0.00199352 -0.148195 -6.75331 0 0 0 16 103 101 92 255 
0.00952766 -0.151467 -6.75024 0 0 0 16 120 116 111 255 
0.0110852 -0.150559 -6.75087 0 0 0 16 112 110 104 255 
0.0128353 -0.152244 -6.75624 0 0 0 16 145 144 134 255 
0.014431 -0.151237 -6.75761 0 0 0 16 169 168 158 255 
0.017381 -0.150988 -6.76228 0 0 0 16 158 155 154 255 
0.0189754 -0.14982 -6.76535 0 0 0 16 108 105 105 255 
0.0201115 -0.151091 -6.76879 0 0 0 16 96 93 90 255 
0.0215293 -0.151309 -6.77056 0 0 0 16 90 89 84 255 
0.0228596 -0.149983 -6.7732 0 0 0 16 104 102 97 255 
0.0237541 -0.151135 -6.77631 0 0 0 16 73 71 68 255 
0.024042 -0.148232 -6.78495 0 0 0 16 92 91 89 255 
0.0255179 -0.149884 -6.78501 0 0 0 16 115 112 105 255 
0.0285763 -0.149662 -6.79089 0 0 0 16 145 143 133 255 
0.0272186 -0.148085 -6.79023 0 0 0 16 128 126 119 255 
0.0301501 -0.148464 -6.79263 0 0 0 16 172 171 160 255 
0.0346343 -0.148501 -6.79656 0 0 0 16 163 160 154 255 
0.032769 -0.149611 -6.79516 0 0 0 16 173 170 162 255 
0.0366995 -0.149464 -6.79889 0 0 0 16 157 154 145 255 
0.0413209 -0.14673 -6.82368 0 0 0 16 172 170 164 255 
0.042831 -0.14633 -6.82613 0 0 0 16 135 136 142 255 
0.0456791 -0.147029 -6.82915 0 0 0 16 40 39 39 255 
0.0541892 -0.146567 -6.85106 0 0 0 16 114 116 112 255 
0.0553927 -0.145754 -6.84605 0 0 0 16 93 93 89 255 
0.0552647 -0.14507 -6.85378 0 0 0 16 151 154 146 255 
0.0580478 -0.145921 -6.86073 0 0 0 16 153 154 154 255 
0.0578678 -0.14431 -6.86009 0 0 0 16 159 158 157 255 
0.060248 -0.144277 -6.86364 0 0 0 16 115 113 118 255 
0.0643041 -0.144307 -6.86673 0 0 0 16 101 99 97 255 
0.0678389 -0.145036 -6.86839 0 0 0 16 157 154 143 255 
0.0690817 -0.147265 -6.86987 0 0 0 16 169 166 157 255 
0.0716471 -0.145381 -6.8727 0 0 0 16 119 117 116 255 
0.0724026 -0.147442 -6.87208 0 0 0 16 107 105 105 255 
0.0743287 -0.146404 -6.87363 0 0 0 16 116 115 109 255 
0.0732095 -0.141785 -6.89922 0 0 0 16 102 104 100 255 
0.0738461 -0.142924 -6.90292 0 0 0 16 131 134 126 255 
0.0761653 -0.141904 -6.90434 0 0 0 16 158 160 152 255 
0.0789486 -0.141509 -6.91 0 0 0 16 125 126 132 255 
0.0805354 -0.142846 -6.91251 0 0 0 16 60 63 68 255 
0.0819255 -0.141197 -6.9151 0 0 0 16 57 56 56 255 
-0.178762 -0.148442 -6.5194 0 0 0 16 180 173 160 255 
-0.17648 -0.147471 -6.52289 0 0 0 16 130 118 105 255 
-0.171755 -0.147111 -6.52424 0 0 0 16 52 48 40 255 
-0.173205 -0.147395 -6.52726 0 0 0 16 47 43 33 255 
-0.0939754 -0.160607 -6.55627 0 0 0 16 191 188 182 255 
-0.0929864 -0.159477 -6.55783 0 0 0 16 191 187 181 255 
-0.0894044 -0.161525 -6.56521 0 0 0 16 178 170 151 255 
-0.0864849 -0.158651 -6.58615 0 0 0 16 86 85 74 255 
-0.0670421 -0.160653 -6.59074 0 0 0 16 152 145 136 255 
-0.0516699 -0.162256 -6.61338 0 0 0 16 178 172 159 255 
-0.022951 -0.161016 -6.64984 0 0 0 16 183 180 172 255 
-0.021792 -0.162327 -6.65152 0 0 0 16 191 188 177 255 
-0.0207844 -0.16096 -6.65461 0 0 0 16 195 191 179 255 
-0.0196512 -0.154442 -6.70381 0 0 0 16 40 39 36 255 
-0.0155452 -0.154483 -6.7066 0 0 0 16 95 92 88 255 
-0.00100495 -0.156102 -6.71892 0 0 0 16 64 62 62 255 
0.00316655 -0.158623 -6.71789 0 0 0 16 64 62 58 255 
0.00410027 -0.157439 -6.7201 0 0 0 16 84 81 77 255 
-0.00593467 -0.151896 -6.73934 0 0 0 16 115 110 108 255 
-0.00387013 -0.152014 -6.74354 0 0 0 16 55 54 52 255 
-0.0029368 -0.150764 -6.74586 0 0 0 16 31 31 29 255 
0.00875702 -0.154311 -6.74697 0 0 0 16 103 101 97 255 
0.00773615 -0.152519 -6.7489 0 0 0 16 115 111 108 255 
0.0103812 -0.153432 -6.74948 0 0 0 16 106 104 100 255 
0.00772172 -0.152231 -6.74963 0 0 0 16 113 110 107 255 
0.0111299 -0.153688 -6.75218 0 0 0 16 119 118 110 255 
0.0123156 -0.154852 -6.75541 0 0 0 16 149 148 138 255 
0.0139595 -0.1538 -6.75768 0 0 0 16 172 170 160 255 
0.0155836 -0.15269 -6.75959 0 0 0 16 166 164 157 255 
0.016635 -0.154132 -6.76193 0 0 0 16 154 151 148 255 
0.0184761 -0.152252 -6.76573 0 0 0 16 113 109 108 255 
0.0195136 -0.153868 -6.76677 0 0 0 16 118 113 111 255 
0.0208198 -0.152686 -6.77011 0 0 0 16 104 100 95 255 
0.021585 -0.154262 -6.7718 0 0 0 16 109 105 100 255 
0.0230268 -0.153159 -6.77483 0 0 0 16 98 94 90 255 
0.0241025 -0.150951 -6.78411 0 0 0 16 84 83 80 255 
0.025399 -0.152382 -6.7857 0 0 0 16 110 107 101 255 
0.0269796 -0.151019 -6.78826 0 0 0 16 125 123 116 255 
0.0284338 -0.152135 -6.79175 0 0 0 16 139 138 127 255 
0.0299851 -0.150942 -6.79344 0 0 0 16 162 160 149 255 
0.034369 -0.151084 -6.79659 0 0 0 16 161 158 151 255 
0.0407992 -0.150625 -6.82188 0 0 0 16 169 163 157 255 
0.0427212 -0.149184 -6.82411 0 0 0 16 149 151 148 255 
0.0446267 -0.149404 -6.82917 0 0 0 16 45 46 49 255 
0.0454957 -0.148396 -6.83195 0 0 0 16 42 42 36 255 
0.0505848 -0.147357 -6.84575 0 0 0 16 90 88 82 255 
0.0519359 -0.148138 -6.85006 0 0 0 16 100 100 96 255 
0.0550394 -0.147909 -6.85411 0 0 0 16 151 153 146 255 
0.0571825 -0.147424 -6.85792 0 0 0 16 163 163 157 255 
0.0583129 -0.149027 -6.85998 0 0 0 16 149 149 149 255 
0.0599434 -0.14765 -6.86201 0 0 0 16 107 111 122 255 
0.0631607 -0.148085 -6.86558 0 0 0 16 107 105 99 255 
0.0652964 -0.147151 -6.86666 0 0 0 16 70 69 63 255 
0.0669365 -0.148864 -6.86771 0 0 0 16 136 134 123 255 
0.0709457 -0.148133 -6.87205 0 0 0 16 124 123 121 255 
0.0719322 -0.149992 -6.87249 0 0 0 16 81 81 81 255 
0.0723141 -0.144321 -6.90004 0 0 0 16 100 102 99 255 
0.0785217 -0.144253 -6.90502 0 0 0 16 157 157 149 255 
0.0806402 -0.145772 -6.90695 0 0 0 16 121 125 127 255 
-0.176545 -0.150175 -6.52299 0 0 0 16 129 118 105 255 
-0.172911 -0.150581 -6.5247 0 0 0 16 62 56 47 255 
-0.175 -0.148762 -6.52498 0 0 0 16 98 87 75 255 
-0.0895017 -0.163211 -6.56093 0 0 0 16 160 161 155 255 
-0.0882699 -0.163035 -6.56636 0 0 0 16 174 169 156 255 
-0.0846993 -0.160512 -6.58532 0 0 0 16 85 83 71 255 
-0.0868908 -0.161075 -6.58639 0 0 0 16 82 79 65 255 
-0.0519683 -0.164782 -6.6134 0 0 0 16 177 172 159 255 
-0.0502546 -0.163763 -6.61481 0 0 0 16 172 169 159 255 
-0.0231447 -0.16345 -6.64966 0 0 0 16 180 177 169 255 
-0.0231546 -0.163479 -6.64966 0 0 0 16 180 177 169 255 
-0.0219757 -0.164759 -6.65138 0 0 0 16 191 187 176 255 
-0.0187895 -0.15741 -6.70397 0 0 0 16 56 55 53 255 
-0.0174217 -0.156164 -6.70577 0 0 0 16 99 96 92 255 
-0.0149238 -0.157178 -6.70659 0 0 0 16 91 89 88 255 
0.00238136 -0.159939 -6.71563 0 0 0 16 55 53 51 255 
0.00384667 -0.159928 -6.72008 0 0 0 16 68 65 61 255 
-0.00423112 -0.154569 -6.74372 0 0 0 16 52 50 47 255 
-0.00310456 -0.153278 -6.74577 0 0 0 16 64 64 62 255 
-0.00217264 -0.154689 -6.74794 0 0 0 16 64 63 60 255 
-0.00110931 -0.15341 -6.75007 0 0 0 16 66 65 61 255 
0.0087844 -0.156434 -6.74738 0 0 0 16 117 114 109 255 
0.00751277 -0.157515 -6.74682 0 0 0 16 99 97 93 255 
0.00630323 -0.155421 -6.75024 0 0 0 16 121 118 113 255 
0.00751237 -0.15751 -6.74686 0 0 0 16 98 95 91 255 
0.00630568 -0.155429 -6.75017 0 0 0 16 117 113 109 255 
0.00751237 -0.15751 -6.74686 0 0 0 16 98 95 91 255 
0.00988667 -0.157766 -6.74954 0 0 0 16 117 115 107 255 
0.0110083 -0.156108 -6.7535 0 0 0 16 124 124 115 255 
0.0121927 -0.157234 -6.75704 0 0 0 16 156 156 145 255 
0.0135369 -0.156346 -6.75736 0 0 0 16 175 173 163 255 
0.0161601 -0.156619 -6.76194 0 0 0 16 165 162 158 255 
0.0179274 -0.15486 -6.76488 0 0 0 16 121 118 117 255 
0.0185976 -0.15635 -6.76723 0 0 0 16 103 99 98 255 
0.0201355 -0.155261 -6.76957 0 0 0 16 99 95 91 255 
0.0209174 -0.156779 -6.77167 0 0 0 16 99 95 90 255 
0.0229642 -0.155422 -6.77628 0 0 0 16 88 85 80 255 
0.0241481 -0.153748 -6.78367 0 0 0 16 101 98 94 255 
0.0252605 -0.154615 -6.78591 0 0 0 16 107 103 97 255 
0.026686 -0.153281 -6.78869 0 0 0 16 116 116 111 255 
0.0281419 -0.154716 -6.79176 0 0 0 16 155 154 143 255 
0.0297377 -0.153591 -6.79347 0 0 0 16 158 157 145 255 
0.0309011 -0.155227 -6.79443 0 0 0 16 168 166 154 255 
0.0336342 -0.154306 -6.79653 0 0 0 16 158 154 147 255 
0.0354724 -0.155757 -6.79816 0 0 0 16 158 154 146 255 
0.0401546 -0.154198 -6.81209 0 0 0 16 168 166 161 255 
0.0404269 -0.152452 -6.82454 0 0 0 16 165 161 155 255 
0.0445067 -0.152429 -6.82931 0 0 0 16 59 59 59 255 
0.0452493 -0.150908 -6.83208 0 0 0 16 56 55 49 255 
0.043227 -0.149922 -6.85013 0 0 0 16 71 69 62 255 
0.0458928 -0.149079 -6.84927 0 0 0 16 88 86 77 255 
0.0500691 -0.150361 -6.85162 0 0 0 16 95 96 92 255 
0.0468334 -0.149981 -6.85312 0 0 0 16 81 81 76 255 
0.0508918 -0.150412 -6.85293 0 0 0 16 103 104 100 255 
0.0522506 -0.148772 -6.85552 0 0 0 16 127 132 128 255 
0.054266 -0.150224 -6.85644 0 0 0 16 163 164 154 255 
0.0568485 -0.150277 -6.85792 0 0 0 16 163 162 156 255 
0.0599191 -0.150691 -6.86237 0 0 0 16 97 99 107 255 
0.0616193 -0.149362 -6.86408 0 0 0 16 105 103 101 255 
0.0630863 -0.150899 -6.86553 0 0 0 16 90 89 83 255 
0.064856 -0.149753 -6.8669 0 0 0 16 106 105 97 255 
0.0672164 -0.151466 -6.86858 0 0 0 16 151 150 137 255 
0.0691532 -0.150038 -6.86977 0 0 0 16 165 164 156 255 
0.0714255 -0.152634 -6.87256 0 0 0 16 86 86 87 255 
0.0706438 -0.146628 -6.9009 0 0 0 16 102 103 101 255 
0.0735128 -0.146736 -6.90109 0 0 0 16 114 116 111 255 
0.0752581 -0.147697 -6.90462 0 0 0 16 159 162 152 255 
0.0782268 -0.148157 -6.9089 0 0 0 16 142 143 146 255 
-0.177908 -0.151461 -6.52052 0 0 0 16 171 164 153 255 
-0.176717 -0.152982 -6.52289 0 0 0 16 135 124 111 255 
-0.172924 -0.153472 -6.5246 0 0 0 16 77 69 60 255 
-0.089417 -0.165898 -6.56032 0 0 0 16 164 164 158 255 
-0.0891075 -0.16427 -6.56405 0 0 0 16 172 166 148 255 
-0.0851221 -0.162922 -6.58561 0 0 0 16 93 87 74 255 
-0.0690934 -0.166888 -6.58928 0 0 0 16 185 179 169 255 
-0.0506285 -0.166227 -6.61481 0 0 0 16 173 170 161 255 
-0.0233081 -0.165896 -6.64968 0 0 0 16 180 177 169 255 
-0.0221289 -0.167177 -6.6514 0 0 0 16 189 186 176 255 
0.00187991 -0.162386 -6.71638 0 0 0 16 45 42 41 255 
0.00301426 -0.161225 -6.71785 0 0 0 16 39 38 35 255 
-0.00431819 -0.15728 -6.74372 0 0 0 16 34 33 30 255 
-0.00329848 -0.15595 -6.74586 0 0 0 16 31 30 28 255 
-0.0014005 -0.1561 -6.74973 0 0 0 16 39 38 36 255 
0.00866935 -0.159225 -6.74608 0 0 0 16 99 96 92 255 
0.00749587 -0.160169 -6.7468 0 0 0 16 95 93 89 255 
0.00749557 -0.160165 -6.74682 0 0 0 16 96 93 89 255 
0.00749557 -0.160165 -6.74682 0 0 0 16 96 93 89 255 
0.00976099 -0.160426 -6.74918 0 0 0 16 98 96 89 255 
0.0107208 -0.158482 -6.75479 0 0 0 16 129 127 119 255 
0.0133803 -0.158719 -6.75814 0 0 0 16 171 170 160 255 
0.014708 -0.157594 -6.76 0 0 0 16 157 159 158 255 
0.0156893 -0.159107 -6.76194 0 0 0 16 172 169 164 255 
0.0171493 -0.157272 -6.76516 0 0 0 16 130 128 128 255 
0.0180874 -0.158979 -6.76636 0 0 0 16 102 99 99 255 
0.018211 -0.158632 -6.76748 0 0 0 16 84 81 80 255 
0.0196465 -0.157815 -6.76925 0 0 0 16 98 95 91 255 
0.0212962 -0.159228 -6.77296 0 0 0 16 75 73 69 255 
0.022529 -0.157863 -6.77583 0 0 0 16 57 55 49 255 
0.0240659 -0.156047 -6.78392 0 0 0 16 99 94 88 255 
0.0237038 -0.157412 -6.78398 0 0 0 16 97 94 88 255 
0.0252813 -0.15722 -6.78672 0 0 0 16 110 107 102 255 
0.0264862 -0.155836 -6.78926 0 0 0 16 124 122 115 255 
0.0276844 -0.157217 -6.79203 0 0 0 16 150 150 140 255 
0.0298909 -0.157737 -6.79341 0 0 0 16 181 179 166 255 
0.0307681 -0.157802 -6.79465 0 0 0 16 179 176 164 255 
0.0345062 -0.158141 -6.79806 0 0 0 16 163 160 151 255 
0.0365998 -0.157619 -6.79937 0 0 0 16 158 155 145 255 
0.0397822 -0.157139 -6.81172 0 0 0 16 169 166 161 255 
0.0408868 -0.154606 -6.82614 0 0 0 16 155 154 153 255 
0.0441398 -0.155426 -6.82935 0 0 0 16 40 41 45 255 
0.0447814 -0.153867 -6.83223 0 0 0 16 43 42 37 255 
0.0450884 -0.151598 -6.85081 0 0 0 16 89 88 79 255 
0.0504859 -0.152446 -6.85429 0 0 0 16 105 107 104 255 
0.0519284 -0.151298 -6.8568 0 0 0 16 141 144 136 255 
0.053901 -0.153015 -6.85743 0 0 0 16 152 154 144 255 
0.0565466 -0.153131 -6.85789 0 0 0 16 163 163 155 255 
0.0583242 -0.152047 -6.86029 0 0 0 16 146 147 146 255 
0.0581367 -0.151861 -6.85999 0 0 0 16 149 149 148 255 
0.0598095 -0.15343 -6.86238 0 0 0 16 121 121 124 255 
0.0613906 -0.152058 -6.86457 0 0 0 16 69 69 67 255 
0.0629088 -0.153648 -6.86566 0 0 0 16 111 109 102 255 
0.0647928 -0.152473 -6.86714 0 0 0 16 104 103 95 255 
0.0663521 -0.154032 -6.86858 0 0 0 16 135 133 122 255 
0.0681784 -0.152811 -6.87002 0 0 0 16 167 166 154 255 
0.0703917 -0.154675 -6.87096 0 0 0 16 133 132 132 255 
0.0739127 -0.149217 -6.90231 0 0 0 16 133 136 128 255 
0.0748839 -0.150825 -6.90506 0 0 0 16 158 160 149 255 
0.0776282 -0.151204 -6.90925 0 0 0 16 150 151 152 255 
0.0789685 -0.149768 -6.91167 0 0 0 16 92 93 102 255 
-0.0908666 -0.167782 -6.56364 0 0 0 16 189 184 171 255 
-0.0890307 -0.16676 -6.56417 0 0 0 16 182 178 163 255 
-0.0850627 -0.165431 -6.58592 0 0 0 16 64 58 51 255 
-0.0693307 -0.169341 -6.58939 0 0 0 16 198 195 189 255 
-0.0523019 -0.16727 -6.61347 0 0 0 16 183 179 167 255 
-0.0441834 -0.169764 -6.61974 0 0 0 16 198 196 188 255 
-0.0422443 -0.168297 -6.62357 0 0 0 16 199 196 189 255 
-0.0248001 -0.169487 -6.64785 0 0 0 16 182 181 175 255 
-0.00456558 -0.159969 -6.74351 0 0 0 16 54 53 47 255 
-0.00337384 -0.158856 -6.74558 0 0 0 16 30 30 26 255 
-0.00232855 -0.160203 -6.74755 0 0 0 16 65 63 59 255 
-0.00127939 -0.15889 -6.74966 0 0 0 16 38 37 34 255 
0.00623734 -0.160739 -6.74999 0 0 0 16 117 114 108 255 
0.00623619 -0.160743 -6.74997 0 0 0 16 119 115 109 255 
0.00919818 -0.162767 -6.74806 0 0 0 16 116 113 107 255 
0.00919509 -0.162727 -6.74836 0 0 0 16 116 113 107 255 
0.0105965 -0.161205 -6.75345 0 0 0 16 121 119 112 255 
0.0119835 -0.159816 -6.75693 0 0 0 16 153 153 142 255 
0.0132231 -0.161242 -6.7584 0 0 0 16 169 169 159 255 
0.0145692 -0.160175 -6.7601 0 0 0 16 164 164 160 255 
0.0169056 -0.159958 -6.76455 0 0 0 16 139 138 140 255 
0.0182965 -0.161573 -6.76701 0 0 0 16 104 101 100 255 
0.0208553 -0.160759 -6.76734 0 0 0 16 116 113 108 255 
0.0209513 -0.161922 -6.7723 0 0 0 16 75 73 68 255 
0.0222388 -0.16058 -6.77522 0 0 0 16 62 60 54 255 
0.0239012 -0.160417 -6.78189 0 0 0 16 88 85 79 255 
0.0250982 -0.159958 -6.78584 0 0 0 16 111 108 102 255 
0.0239798 -0.158224 -6.78628 0 0 0 16 110 106 100 255 
0.0261595 -0.158124 -6.79069 0 0 0 16 117 118 112 255 
0.0275999 -0.159769 -6.79253 0 0 0 16 148 149 141 255 
0.0291165 -0.158641 -6.7933 0 0 0 16 176 174 164 255 
0.0301101 -0.160312 -6.79444 0 0 0 16 182 181 169 255 
0.0323165 -0.158959 -6.79581 0 0 0 16 171 167 157 255 
0.0336499 -0.160639 -6.79767 0 0 0 16 165 161 153 255 
0.0357112 -0.159996 -6.79892 0 0 0 16 161 158 151 255 
0.038804 -0.160853 -6.8017 0 0 0 16 167 166 158 255 
0.0398176 -0.159257 -6.80511 0 0 0 16 171 169 161 255 
0.0395737 -0.159681 -6.81229 0 0 0 16 173 170 163 255 
0.0412069 -0.157838 -6.82528 0 0 0 16 155 154 153 255 
0.0431306 -0.156856 -6.82683 0 0 0 16 91 92 103 255 
0.0438804 -0.158467 -6.82913 0 0 0 16 49 48 54 255 
0.0474651 -0.154966 -6.85347 0 0 0 16 93 92 88 255 
0.0501596 -0.155201 -6.85327 0 0 0 16 102 103 101 255 
0.0519994 -0.154135 -6.85566 0 0 0 16 123 126 121 255 
0.0566241 -0.156066 -6.85781 0 0 0 16 162 162 154 255 
0.0580626 -0.154668 -6.86015 0 0 0 16 145 145 144 255 
0.0581996 -0.15477 -6.86041 0 0 0 16 146 148 147 255 
0.0597503 -0.156124 -6.86251 0 0 0 16 117 116 120 255 
0.0612608 -0.154859 -6.86437 0 0 0 16 77 76 76 255 
0.0645571 -0.15515 -6.86716 0 0 0 16 117 115 107 255 
0.0660125 -0.15673 -6.86843 0 0 0 16 127 126 113 255 
0.0683817 -0.155768 -6.86959 0 0 0 16 159 158 150 255 
0.0679931 -0.155518 -6.86996 0 0 0 16 165 164 153 255 
0.0700151 -0.157362 -6.87078 0 0 0 16 122 121 121 255 
0.063619 -0.151278 -6.89976 0 0 0 16 87 84 74 255 
0.0612985 -0.149242 -6.90047 0 0 0 16 65 63 52 255 
0.0674122 -0.151335 -6.90212 0 0 0 16 94 95 93 255 
0.0673972 -0.151422 -6.902 0 0 0 16 94 95 93 255 
-0.0912807 -0.170119 -6.56457 0 0 0 16 192 189 178 255 
-0.0889941 -0.169283 -6.56405 0 0 0 16 183 181 172 255 
-0.0853688 -0.170686 -6.57402 0 0 0 16 112 104 95 255 
-0.0703904 -0.171066 -6.58771 0 0 0 16 175 174 170 255 
-0.0674969 -0.170719 -6.59123 0 0 0 16 137 133 129 255 
-0.0543648 -0.170887 -6.61194 0 0 0 16 192 190 179 255 
-0.0525759 -0.169762 -6.61361 0 0 0 16 192 189 180 255 
-0.0459438 -0.170894 -6.61888 0 0 0 16 188 187 178 255 
-0.0438438 -0.172347 -6.61962 0 0 0 16 196 194 186 255 
-0.0424711 -0.170814 -6.62331 0 0 0 16 201 199 193 255 
-0.0261108 -0.170634 -6.64624 0 0 0 16 189 188 183 255 
-0.0249542 -0.171889 -6.64798 0 0 0 16 181 179 175 255 
-0.0235929 -0.170754 -6.64953 0 0 0 16 178 176 170 255 
-0.00618062 -0.16256 -6.73875 0 0 0 16 112 109 103 255 
-0.00476358 -0.16263 -6.74344 0 0 0 16 61 60 55 255 
-0.00250375 -0.162857 -6.74736 0 0 0 16 61 59 55 255 
-0.00133136 -0.161627 -6.74963 0 0 0 16 65 63 60 255 
0.00779804 -0.163818 -6.74668 0 0 0 16 108 105 100 255 
0.00883836 -0.165314 -6.7478 0 0 0 16 117 114 108 255 
0.00777522 -0.163554 -6.74862 0 0 0 16 113 109 104 255 
0.0101587 -0.164283 -6.74922 0 0 0 16 91 90 83 255 
0.0102428 -0.163863 -6.75241 0 0 0 16 123 120 112 255 
0.0117737 -0.162377 -6.75688 0 0 0 16 151 150 140 255 
0.0129477 -0.164055 -6.75666 0 0 0 16 161 160 152 255 
0.0141754 -0.162848 -6.7592 0 0 0 16 161 162 158 255 
0.0166219 -0.163522 -6.76341 0 0 0 16 150 149 150 255 
0.0170795 -0.16318 -6.76407 0 0 0 16 143 141 143 255 
0.0185427 -0.164335 -6.76641 0 0 0 16 110 107 106 255 
0.0197111 -0.163025 -6.76714 0 0 0 16 96 93 91 255 
0.020608 -0.164724 -6.7708 0 0 0 16 68 67 61 255 
0.0220119 -0.163319 -6.77437 0 0 0 16 83 80 76 255 
0.0233003 -0.161983 -6.77727 0 0 0 16 62 61 56 255 
0.0239148 -0.162933 -6.78265 0 0 0 16 97 94 89 255 
0.0250951 -0.162598 -6.78574 0 0 0 16 114 112 107 255 
0.0274204 -0.162499 -6.79113 0 0 0 16 138 138 131 255 
0.0261024 -0.160817 -6.79024 0 0 0 16 119 120 114 255 
0.0283995 -0.161575 -6.79258 0 0 0 16 160 160 152 255 
0.0299236 -0.162934 -6.7942 0 0 0 16 183 181 170 255 
0.0316432 -0.161794 -6.79537 0 0 0 16 173 170 160 255 
0.0333057 -0.163208 -6.7975 0 0 0 16 172 168 159 255 
0.0368864 -0.161865 -6.79984 0 0 0 16 164 162 153 255 
0.0383055 -0.163372 -6.8018 0 0 0 16 170 168 159 255 
0.0397607 -0.161873 -6.80545 0 0 0 16 173 170 162 255 
0.0402551 -0.16058 -6.82599 0 0 0 16 164 162 159 255 
0.0428126 -0.1598 -6.82669 0 0 0 16 107 108 119 255 
0.0442535 -0.159931 -6.83184 0 0 0 16 37 35 35 255 
0.0518418 -0.159887 -6.83791 0 0 0 16 59 58 54 255 
0.0456072 -0.157 -6.85548 0 0 0 16 89 89 83 255 
0.0501987 -0.158402 -6.84699 0 0 0 16 88 88 82 255 
0.0548745 -0.158925 -6.85209 0 0 0 16 122 127 125 255 
0.0551005 -0.157118 -6.85551 0 0 0 16 147 150 144 255 
0.0564722 -0.158803 -6.85811 0 0 0 16 162 162 156 255 
0.0579532 -0.157449 -6.86017 0 0 0 16 145 145 145 255 
0.059528 -0.158796 -6.86255 0 0 0 16 109 109 114 255 
0.0583207 -0.157134 -6.86118 0 0 0 16 141 142 144 255 
0.0621934 -0.15795 -6.86553 0 0 0 16 62 59 58 255 
0.0640722 -0.158093 -6.86651 0 0 0 16 89 86 81 255 
0.0658646 -0.159478 -6.86818 0 0 0 16 107 106 96 255 
0.0675571 -0.158291 -6.86905 0 0 0 16 153 151 137 255 
0.0678395 -0.158423 -6.86941 0 0 0 16 147 146 135 255 
0.064219 -0.154392 -6.89767 0 0 0 16 75 72 62 255 
0.0605437 -0.152034 -6.90137 0 0 0 16 55 53 42 255 
0.0666629 -0.154191 -6.89992 0 0 0 16 91 91 85 255 
0.0771116 -0.154082 -6.90965 0 0 0 16 153 154 154 255 
0.0782249 -0.155564 -6.91193 0 0 0 16 103 104 113 255 
-0.185968 -0.158607 -6.51371 0 0 0 16 203 199 187 255 
-0.0872539 -0.173521 -6.56665 0 0 0 16 170 169 164 255 
-0.0855448 -0.173187 -6.57335 0 0 0 16 130 125 120 255 
-0.0743401 -0.173229 -6.58377 0 0 0 16 140 137 128 255 
-0.0715709 -0.17373 -6.58484 0 0 0 16 182 181 174 255 
-0.0710269 -0.172197 -6.58769 0 0 0 16 181 179 174 255 
-0.0687986 -0.172175 -6.5894 0 0 0 16 184 181 177 255 
-0.0672514 -0.173862 -6.59112 0 0 0 16 162 158 151 255 
-0.0583383 -0.171807 -6.60983 0 0 0 16 133 130 124 255 
-0.0546055 -0.173239 -6.61256 0 0 0 16 192 189 179 255 
-0.0262529 -0.173037 -6.64637 0 0 0 16 186 186 182 255 
-0.00748795 -0.165598 -6.73378 0 0 0 16 33 33 31 255 
-0.00730576 -0.164092 -6.73668 0 0 0 16 53 53 48 255 
-0.00641836 -0.165339 -6.73884 0 0 0 16 114 111 110 255 
-0.00552707 -0.163995 -6.74109 0 0 0 16 105 103 99 255 
-0.00518097 -0.165144 -6.74359 0 0 0 16 55 54 53 255 
-0.00370118 -0.164027 -6.74534 0 0 0 16 34 34 32 255 
-0.00263069 -0.165532 -6.74719 0 0 0 16 47 46 46 255 
-0.000803592 -0.163207 -6.75058 0 0 0 16 41 40 38 255 
0.00861698 -0.16788 -6.74789 0 0 0 16 112 107 101 255 
0.00755082 -0.166098 -6.74892 0 0 0 16 118 114 108 255 
0.00755183 -0.166104 -6.7489 0 0 0 16 112 108 103 255 
0.00755035 -0.166087 -6.74903 0 0 0 16 113 109 103 255 
0.00990058 -0.166664 -6.75024 0 0 0 16 114 111 103 255 
0.0114628 -0.16516 -6.755 0 0 0 16 133 133 125 255 
0.0112625 -0.167605 -6.75422 0 0 0 16 127 127 119 255 
0.013034 -0.166329 -6.75671 0 0 0 16 159 159 152 255 
0.0142699 -0.167594 -6.75894 0 0 0 16 166 166 162 255 
0.016001 -0.167438 -6.76214 0 0 0 16 157 160 161 255 
0.0171816 -0.166093 -6.76401 0 0 0 16 140 139 141 255 
0.0191051 -0.166902 -6.76707 0 0 0 16 93 90 89 255 
0.020893 -0.165439 -6.76716 0 0 0 16 104 100 96 255 
0.0204485 -0.165258 -6.7686 0 0 0 16 113 109 104 255 
0.0221483 -0.165993 -6.77395 0 0 0 16 71 67 62 255 
0.0283292 -0.164147 -6.79277 0 0 0 16 161 161 155 255 
0.0298702 -0.165484 -6.79452 0 0 0 16 168 168 161 255 
0.0314357 -0.164309 -6.79572 0 0 0 16 176 173 163 255 
0.0328832 -0.165855 -6.79691 0 0 0 16 174 170 162 255 
0.0349257 -0.164733 -6.79855 0 0 0 16 169 165 157 255 
0.0368123 -0.165953 -6.79978 0 0 0 16 167 164 153 255 
0.0392294 -0.166405 -6.80443 0 0 0 16 172 170 162 255 
0.039188 -0.164981 -6.80589 0 0 0 16 168 166 158 255 
0.0394934 -0.165253 -6.80513 0 0 0 16 172 170 162 255 
0.0395123 -0.165305 -6.80517 0 0 0 16 172 170 162 255 
0.0392011 -0.163109 -6.81293 0 0 0 16 173 170 164 255 
0.039212 -0.163146 -6.81293 0 0 0 16 173 170 164 255 
0.0383291 -0.161811 -6.81768 0 0 0 16 171 168 162 255 
0.0402277 -0.163515 -6.82437 0 0 0 16 168 165 159 255 
0.041929 -0.163156 -6.82635 0 0 0 16 143 142 148 255 
0.0440903 -0.161612 -6.82843 0 0 0 16 48 48 55 255 
0.044844 -0.163237 -6.83097 0 0 0 16 70 68 66 255 
0.0529474 -0.161498 -6.84045 0 0 0 16 79 77 71 255 
0.047329 -0.160429 -6.85345 0 0 0 16 98 98 94 255 
0.0542125 -0.161739 -6.85286 0 0 0 16 135 139 134 255 
0.0552165 -0.160303 -6.85517 0 0 0 16 156 158 152 255 
0.0568342 -0.161345 -6.85899 0 0 0 16 158 158 151 255 
0.0581087 -0.160032 -6.86126 0 0 0 16 142 143 145 255 
0.0592331 -0.161877 -6.8639 0 0 0 16 88 88 91 255 
0.0629023 -0.159905 -6.86588 0 0 0 16 74 71 68 255 
0.0613533 -0.160574 -6.86561 0 0 0 16 77 76 73 255 
0.0637084 -0.161583 -6.86828 0 0 0 16 56 52 52 255 
0.0602827 -0.15481 -6.90152 0 0 0 16 54 51 42 255 
0.0621777 -0.156455 -6.90246 0 0 0 16 91 86 80 255 
0.077878 -0.1584 -6.91199 0 0 0 16 108 109 117 255 
0.0797573 -0.157082 -6.91369 0 0 0 16 55 56 63 255 
-0.18574 -0.161445 -6.51344 0 0 0 16 204 200 188 255 
-0.0884099 -0.174655 -6.56591 0 0 0 16 177 177 171 255 
-0.0872739 -0.175798 -6.56832 0 0 0 16 171 172 166 255 
-0.0870204 -0.174369 -6.57086 0 0 0 16 161 158 151 255 
-0.0744538 -0.176048 -6.58285 0 0 0 16 183 180 170 255 
-0.0732682 -0.174794 -6.58438 0 0 0 16 180 178 168 255 
-0.0718783 -0.176031 -6.58586 0 0 0 16 190 188 179 255 
-0.0705373 -0.174813 -6.5872 0 0 0 16 191 190 182 255 
-0.0694794 -0.174406 -6.59183 0 0 0 16 195 193 187 255 
-0.0637479 -0.176175 -6.59365 0 0 0 16 173 168 159 255 
-0.0596487 -0.174254 -6.60924 0 0 0 16 166 162 155 255 
-0.0606461 -0.175014 -6.60865 0 0 0 16 175 172 164 255 
-0.0570493 -0.1741 -6.61082 0 0 0 16 165 162 152 255 
-0.0562785 -0.176223 -6.60933 0 0 0 16 188 184 174 255 
-0.0551095 -0.175928 -6.61129 0 0 0 16 193 189 179 255 
-0.0262406 -0.175502 -6.64618 0 0 0 16 185 185 182 255 
0.0089899 -0.173469 -6.72278 0 0 0 16 68 66 64 255 
-0.00516143 -0.167944 -6.74283 0 0 0 16 79 76 74 255 
-0.00086755 -0.167929 -6.74772 0 0 0 16 65 62 61 255 
-0.000869333 -0.165894 -6.75069 0 0 0 16 31 31 29 255 
0.0118317 -0.170331 -6.75432 0 0 0 16 135 134 126 255 
0.0130385 -0.168929 -6.75687 0 0 0 16 158 158 150 255 
0.0176882 -0.168445 -6.765 0 0 0 16 127 126 129 255 
0.0194383 -0.169336 -6.76857 0 0 0 16 36 36 36 255 
0.0208726 -0.16771 -6.77126 0 0 0 16 32 31 28 255 
0.0241867 -0.166051 -6.78994 0 0 0 16 110 111 108 255 
0.0307187 -0.167096 -6.79522 0 0 0 16 177 176 166 255 
0.0333567 -0.168779 -6.79714 0 0 0 16 173 171 163 255 
0.0351136 -0.167393 -6.79848 0 0 0 16 170 167 158 255 
0.0369848 -0.168636 -6.79987 0 0 0 16 171 170 158 255 
0.0386899 -0.168326 -6.80008 0 0 0 16 176 174 164 255 
0.0400045 -0.16756 -6.80807 0 0 0 16 171 170 164 255 
0.0396948 -0.166556 -6.80922 0 0 0 16 172 169 164 255 
0.0411392 -0.165794 -6.82552 0 0 0 16 150 151 151 255 
0.0439888 -0.164762 -6.82849 0 0 0 16 40 42 46 255 
0.0451813 -0.16583 -6.83151 0 0 0 16 41 42 40 255 
0.0489847 -0.162797 -6.84994 0 0 0 16 99 98 96 255 
0.0506163 -0.164374 -6.85079 0 0 0 16 111 112 110 255 
0.0523213 -0.163081 -6.85261 0 0 0 16 116 119 115 255 
0.0541644 -0.164639 -6.85327 0 0 0 16 140 143 139 255 
0.0578096 -0.163028 -6.86072 0 0 0 16 146 147 146 255 
0.0565167 -0.164323 -6.85858 0 0 0 16 159 160 153 255 
0.0601387 -0.163574 -6.86574 0 0 0 16 83 82 80 255 
0.0585015 -0.164541 -6.86385 0 0 0 16 110 110 113 255 
0.0637202 -0.164134 -6.86542 0 0 0 16 72 68 68 255 
0.0620256 -0.162364 -6.86675 0 0 0 16 81 78 74 255 
0.0685059 -0.163409 -6.87014 0 0 0 16 133 132 130 255 
0.0597957 -0.159072 -6.90094 0 0 0 16 55 52 47 255 
0.0614406 -0.157727 -6.90241 0 0 0 16 89 85 77 255 
0.0765482 -0.159722 -6.90953 0 0 0 16 154 155 154 255 
-0.0872483 -0.178559 -6.5664 0 0 0 16 156 157 151 255 
-0.0858964 -0.177356 -6.56888 0 0 0 16 158 159 152 255 
-0.0704524 -0.179065 -6.58262 0 0 0 16 163 163 158 255 
-0.0727877 -0.177432 -6.58347 0 0 0 16 171 170 163 255 
-0.0716613 -0.178693 -6.58457 0 0 0 16 179 177 167 255 
-0.0709367 -0.177064 -6.58981 0 0 0 16 172 171 164 255 
-0.0669461 -0.178492 -6.5918 0 0 0 16 179 175 168 255 
-0.0685202 -0.176814 -6.59241 0 0 0 16 181 178 170 255 
-0.0653307 -0.177364 -6.59405 0 0 0 16 185 180 172 255 
-0.0634673 -0.178559 -6.59485 0 0 0 16 181 177 168 255 
-0.0617337 -0.179352 -6.59808 0 0 0 16 174 173 164 255 
-0.0613331 -0.176987 -6.60582 0 0 0 16 160 161 152 255 
-0.0593798 -0.178081 -6.60545 0 0 0 16 167 165 158 255 
-0.0580266 -0.176639 -6.60817 0 0 0 16 188 184 174 255 
-0.056627 -0.177777 -6.6104 0 0 0 16 176 173 164 255 
-0.023356 -0.179056 -6.64875 0 0 0 16 174 175 170 255 
-0.0220101 -0.17981 -6.65209 0 0 0 16 181 181 177 255 
-0.0192806 -0.179306 -6.65474 0 0 0 16 172 174 174 255 
0.00796418 -0.174851 -6.72085 0 0 0 16 95 92 90 255 
0.00908835 -0.176247 -6.72315 0 0 0 16 113 111 107 255 
0.00741779 -0.173912 -6.72755 0 0 0 16 107 104 100 255 
-0.00137436 -0.169789 -6.74523 0 0 0 16 84 81 79 255 
0.00293421 -0.171499 -6.74998 0 0 0 16 100 96 90 255 
0.00762713 -0.172525 -6.74982 0 0 0 16 99 96 91 255 
0.00577173 -0.171299 -6.75005 0 0 0 16 108 104 97 255 
0.00853368 -0.1708 -6.75153 0 0 0 16 115 111 106 255 
0.0106114 -0.171529 -6.75338 0 0 0 16 121 120 114 255 
0.0130563 -0.171476 -6.75746 0 0 0 16 159 159 155 255 
0.0151513 -0.170685 -6.75772 0 0 0 16 157 160 161 255 
0.0165461 -0.171164 -6.76413 0 0 0 16 147 150 156 255 
0.0187165 -0.172104 -6.7667 0 0 0 16 51 52 53 255 
0.0180253 -0.170337 -6.76634 0 0 0 16 60 61 66 255 
0.0215621 -0.168986 -6.79299 0 0 0 16 108 107 105 255 
0.0352202 -0.170032 -6.79847 0 0 0 16 168 167 158 255 
0.0391595 -0.169149 -6.80441 0 0 0 16 168 167 161 255 
0.0399554 -0.170183 -6.80727 0 0 0 16 167 167 164 255 
0.0408817 -0.167536 -6.82236 0 0 0 16 161 158 151 255 
0.0404577 -0.168363 -6.82593 0 0 0 16 159 160 162 255 
0.0432603 -0.168302 -6.82669 0 0 0 16 78 80 90 255 
0.0471995 -0.168045 -6.82686 0 0 0 16 28 29 26 255 
0.0551003 -0.168373 -6.8391 0 0 0 16 106 106 100 255 
0.0525124 -0.166984 -6.84983 0 0 0 16 115 118 117 255 
0.0505009 -0.167061 -6.85073 0 0 0 16 108 110 107 255 
0.052441 -0.165918 -6.85153 0 0 0 16 116 119 115 255 
0.0542391 -0.167445 -6.85237 0 0 0 16 131 134 131 255 
0.0577606 -0.167262 -6.86175 0 0 0 16 140 142 144 255 
0.059431 -0.166467 -6.86374 0 0 0 16 76 77 83 255 
0.0618922 -0.165103 -6.86637 0 0 0 16 87 85 80 255 
0.0630892 -0.166573 -6.86983 0 0 0 16 78 76 71 255 
0.061499 -0.160901 -6.90185 0 0 0 16 87 84 76 255 
0.0633056 -0.162489 -6.90312 0 0 0 16 79 79 74 255 
0.0746567 -0.162904 -6.9038 0 0 0 16 154 157 149 255 
0.0753825 -0.164298 -6.90648 0 0 0 16 163 165 160 255 
0.0765718 -0.162789 -6.90903 0 0 0 16 157 159 158 255 
-0.40494 -0.123235 -6.51116 0 0 0 16 160 166 171 255 
-0.406569 -0.120935 -6.51464 0 0 0 16 153 158 162 255 
-0.400932 -0.123989 -6.5132 0 0 0 16 150 155 158 255 
-0.181188 -0.167491 -6.51698 0 0 0 16 189 185 175 255 
-0.0698996 -0.180165 -6.58291 0 0 0 16 181 179 170 255 
-0.0698194 -0.180136 -6.58307 0 0 0 16 180 178 171 255 
-0.0700426 -0.179876 -6.58825 0 0 0 16 184 184 177 255 
-0.0604686 -0.183502 -6.58708 0 0 0 16 184 182 174 255 
-0.0604686 -0.183502 -6.58708 0 0 0 16 184 182 174 255 
-0.0629807 -0.181572 -6.59226 0 0 0 16 179 178 171 255 
-0.0544007 -0.184957 -6.58692 0 0 0 16 177 179 176 255 
-0.061165 -0.181094 -6.59235 0 0 0 16 182 180 172 255 
-0.0544007 -0.184957 -6.58692 0 0 0 16 177 179 176 255 
-0.060243 -0.183079 -6.59187 0 0 0 16 181 179 171 255 
-0.0601688 -0.18271 -6.59447 0 0 0 16 183 182 176 255 
-0.0580832 -0.183109 -6.59318 0 0 0 16 175 178 176 255 
-0.0552352 -0.181294 -6.59731 0 0 0 16 154 156 151 255 
-0.0601322 -0.179846 -6.60406 0 0 0 16 174 173 166 255 
-0.0532166 -0.182915 -6.59972 0 0 0 16 159 161 156 255 
-0.0599837 -0.179044 -6.60659 0 0 0 16 150 152 147 255 
-0.0599092 -0.179355 -6.6056 0 0 0 16 168 168 161 255 
-0.0599092 -0.179355 -6.6056 0 0 0 16 168 168 161 255 
-0.0580578 -0.179111 -6.60829 0 0 0 16 167 167 160 255 
-0.0583379 -0.180457 -6.60715 0 0 0 16 163 164 156 255 
0.0201942 -0.199725 -6.58931 0 0 0 16 95 96 99 255 
-0.0241621 -0.180619 -6.64691 0 0 0 16 172 174 173 255 
-0.0228574 -0.1815 -6.64954 0 0 0 16 168 170 167 255 
-0.0212839 -0.182457 -6.65129 0 0 0 16 171 172 168 255 
-0.0204606 -0.180678 -6.65453 0 0 0 16 168 169 167 255 
0.0105222 -0.179284 -6.71657 0 0 0 16 145 147 144 255 
0.0104982 -0.178523 -6.71883 0 0 0 16 135 136 134 255 
0.0123212 -0.18013 -6.72102 0 0 0 16 151 154 151 255 
0.0052748 -0.175882 -6.73008 0 0 0 16 121 123 118 255 
0.00494486 -0.174812 -6.73711 0 0 0 16 116 115 111 255 
0.00224333 -0.173632 -6.74807 0 0 0 16 133 132 129 255 
0.0042137 -0.174231 -6.75032 0 0 0 16 136 136 132 255 
0.010395 -0.174807 -6.74554 0 0 0 16 109 106 102 255 
0.00779764 -0.175079 -6.74889 0 0 0 16 134 134 131 255 
0.00951749 -0.173531 -6.7509 0 0 0 16 94 94 91 255 
0.0114242 -0.174364 -6.75334 0 0 0 16 114 117 115 255 
0.0118489 -0.172879 -6.75491 0 0 0 16 116 119 118 255 
0.014039 -0.173016 -6.75902 0 0 0 16 162 165 164 255 
0.0174452 -0.174246 -6.76768 0 0 0 16 108 108 110 255 
0.0287737 -0.173422 -6.7929 0 0 0 16 164 165 159 255 
0.0291927 -0.171093 -6.7936 0 0 0 16 167 168 160 255 
0.0303938 -0.17201 -6.7948 0 0 0 16 182 181 172 255 
0.0342368 -0.172558 -6.79773 0 0 0 16 171 171 164 255 
0.0357549 -0.173971 -6.7995 0 0 0 16 166 167 160 255 
0.0363725 -0.17189 -6.79936 0 0 0 16 168 168 159 255 
0.038095 -0.173941 -6.80102 0 0 0 16 179 180 172 255 
0.0393691 -0.171963 -6.80414 0 0 0 16 171 172 168 255 
0.0394328 -0.170899 -6.82512 0 0 0 16 163 164 161 255 
0.041662 -0.170759 -6.82658 0 0 0 16 134 136 144 255 
0.0429073 -0.170991 -6.82782 0 0 0 16 59 60 70 255 
0.0460764 -0.17031 -6.82786 0 0 0 16 29 31 29 255 
0.0547973 -0.171758 -6.83977 0 0 0 16 87 86 80 255 
0.0522086 -0.168531 -6.85198 0 0 0 16 116 119 115 255 
0.0581977 -0.168961 -6.86439 0 0 0 16 101 102 104 255 
0.061676 -0.167719 -6.86682 0 0 0 16 80 78 74 255 
0.0598413 -0.167981 -6.867 0 0 0 16 79 78 74 255 
0.0626817 -0.169239 -6.87066 0 0 0 16 58 57 51 255 
0.0686831 -0.165225 -6.89703 0 0 0 16 104 103 101 255 
0.0747478 -0.16592 -6.9032 0 0 0 16 142 148 142 255 
0.0763079 -0.165774 -6.90891 0 0 0 16 156 157 157 255 
-0.406106 -0.126265 -6.51161 0 0 0 16 170 176 178 255 
-0.404918 -0.124664 -6.51435 0 0 0 16 150 156 159 255 
-0.182658 -0.171408 -6.51337 0 0 0 16 193 190 181 255 
-0.181474 -0.170053 -6.51735 0 0 0 16 193 190 181 255 
-0.0617506 -0.184157 -6.58612 0 0 0 16 187 184 176 255 
-0.0547965 -0.186981 -6.58584 0 0 0 16 174 175 171 255 
-0.05001 -0.186641 -6.59483 0 0 0 16 166 169 165 255 
-0.0543736 -0.182813 -6.60686 0 0 0 16 167 169 166 255 
-0.0526726 -0.183718 -6.60875 0 0 0 16 159 161 159 255 
0.0171274 -0.199497 -6.59072 0 0 0 16 145 144 141 255 
-0.0237361 -0.183103 -6.64749 0 0 0 16 165 167 165 255 
-0.0221354 -0.18413 -6.64887 0 0 0 16 169 170 170 255 
-0.0206418 -0.184809 -6.6528 0 0 0 16 156 157 157 255 
-0.0197668 -0.183211 -6.65463 0 0 0 16 143 144 145 255 
-0.0177344 -0.184477 -6.65453 0 0 0 16 128 130 126 255 
0.00886792 -0.181786 -6.71768 0 0 0 16 152 155 153 255 
0.0089878 -0.178926 -6.73472 0 0 0 16 153 154 153 255 
0.012669 -0.178153 -6.74329 0 0 0 16 152 154 153 255 
0.00912806 -0.177845 -6.75032 0 0 0 16 156 158 158 255 
0.00802898 -0.177458 -6.75122 0 0 0 16 156 158 157 255 
0.0102475 -0.175995 -6.75231 0 0 0 16 142 145 143 255 
0.0091605 -0.175903 -6.75358 0 0 0 16 146 148 147 255 
0.0122373 -0.176755 -6.75459 0 0 0 16 134 137 136 255 
0.0138153 -0.177791 -6.75668 0 0 0 16 161 164 163 255 
0.0153498 -0.176443 -6.75708 0 0 0 16 164 167 167 255 
0.0157365 -0.176253 -6.76951 0 0 0 16 154 156 157 255 
0.018168 -0.176289 -6.76713 0 0 0 16 140 141 142 255 
0.0188034 -0.173429 -6.78672 0 0 0 16 106 103 101 255 
0.0197861 -0.17209 -6.79287 0 0 0 16 105 104 101 255 
0.0240701 -0.173024 -6.79239 0 0 0 16 114 116 112 255 
0.033902 -0.175069 -6.79806 0 0 0 16 170 171 165 255 
0.0369608 -0.1763 -6.8001 0 0 0 16 167 167 159 255 
0.0402599 -0.174886 -6.80251 0 0 0 16 165 167 166 255 
0.042055 -0.175687 -6.80509 0 0 0 16 160 164 165 255 
0.0407773 -0.173484 -6.82542 0 0 0 16 153 155 156 255 
0.0461018 -0.174724 -6.82522 0 0 0 16 74 78 80 255 
0.0432116 -0.17334 -6.82606 0 0 0 16 103 106 111 255 
0.044279 -0.17234 -6.82958 0 0 0 16 45 48 48 255 
0.0447947 -0.171386 -6.83306 0 0 0 16 39 39 38 255 
0.0573763 -0.175858 -6.82835 0 0 0 16 60 60 58 255 
0.0546117 -0.174905 -6.83871 0 0 0 16 93 93 88 255 
0.0558131 -0.173736 -6.83454 0 0 0 16 62 62 57 255 
0.0498137 -0.171209 -6.84831 0 0 0 16 90 91 86 255 
0.049949 -0.171024 -6.84965 0 0 0 16 95 97 92 255 
0.052985 -0.173099 -6.85107 0 0 0 16 107 111 108 255 
0.0550003 -0.171577 -6.85393 0 0 0 16 147 150 147 255 
0.0558162 -0.17025 -6.85765 0 0 0 16 159 158 154 255 
0.0588814 -0.170868 -6.86488 0 0 0 16 67 68 74 255 
0.0572922 -0.171601 -6.86436 0 0 0 16 122 124 129 255 
0.0607455 -0.170263 -6.86667 0 0 0 16 72 71 68 255 
0.061427 -0.172212 -6.86753 0 0 0 16 65 64 63 255 
0.0634315 -0.172248 -6.86572 0 0 0 16 85 84 80 255 
0.0622213 -0.171777 -6.87154 0 0 0 16 63 63 53 255 
0.0638737 -0.170559 -6.87502 0 0 0 16 88 87 77 255 
0.0655513 -0.166662 -6.90001 0 0 0 16 81 82 76 255 
