ply
format ascii 1.0
comment VCGLIB generated
element vertex 650
property float x
property float y
property float z
property float nx
property float ny
property float nz
property uchar red
property uchar green
property uchar blue
property uchar alpha
element face 0
property list uchar int vertex_indices
end_header
-0.0361936 -0.127228 -2.59283 0.678763 0.282629 0.677792 9 9 9 255 
-0.0359268 -0.127289 -2.59308 0.569214 0.293624 0.767972 8 8 8 255 
-0.0344053 -0.121961 -2.57642 -0.840151 -0.0553207 0.539524 56 46 42 255 
-0.0342201 -0.121942 -2.57619 -0.710016 0.0185273 0.703942 62 58 56 255 
-0.0340505 -0.122079 -2.57606 -0.209617 0.0740257 0.974977 67 69 66 255 
-0.0338371 -0.12199 -2.57605 -0.736409 0.0133728 0.676404 62 65 62 255 
-0.0342052 -0.118073 -2.56307 0.555737 0.466388 0.688214 52 54 50 255 
-0.0308703 -0.120947 -2.57353 -0.800409 -0.217827 0.558478 60 61 59 255 
-0.0297489 -0.120597 -2.57265 -0.764334 -0.275879 0.582825 53 56 53 255 
-0.0290305 -0.118009 -2.56424 -0.184303 0.193303 0.963673 19 21 15 255 
-0.0282218 -0.116831 -2.56046 -0.684039 0.636513 0.356288 28 30 17 255 
-0.0270394 -0.11658 -2.55997 -0.695583 0.477128 0.537134 13 15 12 255 
-0.0271528 -0.116598 -2.56012 -0.810544 0.353936 0.466634 16 18 13 255 
-0.018141 -0.117325 -2.564 -0.755973 0.077868 0.649955 118 116 110 255 
-0.0472925 -0.125907 -2.58536 -0.0767886 0.969148 0.234213 11 12 11 255 
-0.034164 -0.122284 -2.57608 0.0738328 0.18291 0.980353 64 63 61 255 
-0.0339123 -0.122299 -2.57608 0.155803 0.250022 0.955623 61 64 60 255 
-0.0337528 -0.122043 -2.57564 -0.667577 0.0595766 0.742153 56 59 56 255 
-0.0295334 -0.120825 -2.57257 -0.688184 0.00294481 0.72553 53 55 53 255 
-0.0296953 -0.120915 -2.57263 -0.616438 0.086241 0.782666 52 54 52 255 
-0.0289912 -0.118303 -2.56424 -0.413455 0.0157204 0.910389 16 17 12 255 
-0.0287768 -0.117977 -2.56326 -0.697008 0.442047 0.564601 27 29 22 255 
-0.045564 -0.125341 -2.58302 0.0871514 0.964158 0.250606 44 46 44 255 
-0.036721 -0.128051 -2.59303 -0.597513 0.606302 0.524764 13 13 13 255 
-0.0366096 -0.128062 -2.5931 -0.847351 0.148366 0.509886 13 13 13 255 
-0.0339393 -0.122612 -2.57593 -0.596564 0.362254 0.716159 57 60 57 255 
-0.0295262 -0.121169 -2.57258 -0.571778 -0.203251 0.794832 52 54 50 255 
-0.0293277 -0.118652 -2.56474 -0.564218 -0.182892 0.805114 24 25 20 255 
-0.0291497 -0.118815 -2.56501 -0.785518 -0.206797 0.583264 22 24 19 255 
-0.0292442 -0.118601 -2.56431 -0.566563 -0.51729 0.641418 19 19 16 255 
-0.0291142 -0.118599 -2.56407 -0.680188 -0.360559 0.638233 12 13 10 255 
-0.0288576 -0.118164 -2.56331 -0.621428 0.523541 0.582865 22 23 18 255 
-0.0283496 -0.118093 -2.56307 0.51093 0.586532 0.628436 19 19 15 255 
-0.0279597 -0.118203 -2.56311 0.443924 0.58687 0.677138 19 19 16 255 
-0.0275677 -0.117128 -2.55998 0.366434 0.109944 0.923926 27 30 22 255 
-0.0169267 -0.117201 -2.56256 -0.907424 0.118781 0.40308 139 135 126 255 
-0.0167969 -0.11721 -2.56266 -0.919579 0.345804 0.186533 144 139 131 255 
-0.0489582 -0.125428 -2.58178 0.7691 -0.0112744 0.639028 22 22 20 255 
-0.0337462 -0.122669 -2.5755 -0.820614 0.198409 0.535936 53 56 53 255 
-0.0318519 -0.12211 -2.57442 -0.853467 0.33872 0.396059 44 46 44 255 
-0.0311584 -0.121952 -2.57375 -0.817663 -0.158844 0.55335 48 50 48 255 
-0.0305652 -0.12168 -2.57323 -0.393318 0.498652 0.77243 47 49 47 255 
-0.0288913 -0.121248 -2.57176 -0.624322 0.549019 0.555698 48 42 37 255 
-0.0287649 -0.121005 -2.57096 -0.490718 -0.523894 0.696226 37 38 32 255 
-0.0293378 -0.119225 -2.56554 -0.835618 -0.0868738 0.542399 26 28 22 255 
-0.0288161 -0.120732 -2.57069 -0.472529 -0.575499 0.667471 36 37 28 255 
-0.0292019 -0.118818 -2.56458 -0.699202 -0.398733 0.593404 18 19 16 255 
-0.0291223 -0.118824 -2.56427 -0.558771 -0.522233 0.644242 12 13 10 255 
-0.0288993 -0.118496 -2.56312 -0.382405 0.457616 0.802716 20 21 16 255 
-0.0287887 -0.118343 -2.56312 -0.43523 0.424877 0.793759 19 20 16 255 
-0.0282109 -0.118386 -2.56278 -0.132793 0.348747 0.927761 19 19 16 255 
-0.0278798 -0.118433 -2.56294 0.208918 0.603199 0.769743 14 14 12 255 
-0.0281403 -0.117415 -2.56005 0.273443 -0.167166 0.947251 12 12 11 255 
-0.0272409 -0.117342 -2.56002 0.0888315 0.216908 0.972142 26 28 22 255 
-0.0271852 -0.117243 -2.56002 -0.38196 0.223436 0.896762 25 28 21 255 
-0.0462536 -0.126753 -2.5849 -0.72178 0.540227 0.432653 37 36 33 255 
-0.0365402 -0.12875 -2.59287 -0.577784 0.665355 0.472724 14 14 14 255 
-0.0363946 -0.128559 -2.59301 -0.859094 0.0449729 0.509838 11 11 11 255 
-0.0359664 -0.128315 -2.59209 -0.386648 0.684768 0.617735 8 8 8 255 
-0.0313442 -0.122285 -2.57384 -0.877225 0.060201 0.47629 60 62 60 255 
-0.0288151 -0.121449 -2.5717 -0.635142 0.452361 0.62607 47 41 36 255 
-0.0287408 -0.121382 -2.57139 -0.596173 0.211773 0.774422 36 34 30 255 
-0.0288071 -0.12121 -2.57089 -0.661095 -0.0107341 0.750225 33 32 27 255 
-0.0289918 -0.118655 -2.56312 -0.402158 0.457843 0.792874 14 14 12 255 
-0.0284253 -0.118492 -2.56289 -0.150611 0.450954 0.879748 31 31 27 255 
-0.0280649 -0.118587 -2.56277 0.186207 0.270499 0.944541 11 11 10 255 
-0.0278809 -0.117627 -2.55995 0.280935 -0.127278 0.951249 9 9 8 255 
-0.02796 -0.117664 -2.56006 0.471346 -0.160794 0.867167 10 10 9 255 
-0.0276803 -0.117634 -2.55996 0.206381 -0.326241 0.922482 9 9 8 255 
-0.0273636 -0.117487 -2.55998 -0.252715 0.122041 0.959813 23 25 18 255 
-0.0267818 -0.117534 -2.55996 -0.094501 0.121011 0.988143 14 16 13 255 
-0.0206204 -0.116967 -2.55937 -0.934989 -0.0643833 0.348785 112 103 94 255 
-0.0399734 -0.130385 -2.59614 0.718008 -0.204017 0.665463 15 15 15 255 
-0.0360713 -0.12866 -2.59231 -0.440563 0.443939 0.780271 9 9 9 255 
-0.0295725 -0.121998 -2.57236 -0.850889 -0.120666 0.511301 48 49 47 255 
-0.0289265 -0.12165 -2.57173 -0.564661 0.4597 0.685444 48 42 37 255 
-0.0288189 -0.121596 -2.57148 -0.621651 0.409234 0.66789 44 40 34 255 
-0.0287767 -0.121466 -2.57105 -0.683203 0.121027 0.720129 32 31 27 255 
-0.0287201 -0.121291 -2.57066 -0.595359 0.597211 0.537481 24 24 21 255 
-0.0275803 -0.117796 -2.55988 0.306478 -0.0426197 0.950923 9 9 9 255 
-0.0274012 -0.11778 -2.55982 -0.00837749 0.224854 0.974357 13 14 12 255 
-0.0272831 -0.117835 -2.55971 0.429702 0.689502 0.583047 11 11 9 255 
-0.0205994 -0.11719 -2.55937 -0.933962 -0.0822354 0.347783 104 92 83 255 
-0.0205883 -0.117199 -2.55938 -0.947746 -0.058007 0.313709 105 93 84 255 
-0.0204124 -0.117454 -2.55973 -0.945328 -0.0424728 0.323344 117 108 99 255 
-0.0204296 -0.117403 -2.55954 -0.946691 -0.0717611 0.314049 118 108 100 255 
-0.0203768 -0.117465 -2.55974 -0.949087 0.00265806 0.315004 111 98 88 255 
-0.0493794 -0.126121 -2.58114 0.597254 -0.343083 0.72497 19 19 17 255 
-0.0444355 -0.126364 -2.58224 -0.700506 -0.234573 0.673994 48 42 37 255 
-0.0291082 -0.122232 -2.57203 -0.0433645 0.269807 0.961937 42 39 35 255 
-0.0290324 -0.122014 -2.57202 -0.00445357 0.493445 0.869766 46 40 35 255 
-0.0289978 -0.122156 -2.57179 -0.532253 -0.273375 0.801232 44 39 35 255 
-0.0287924 -0.121697 -2.57109 -0.788127 -0.13931 0.599541 36 34 29 255 
-0.0287337 -0.121752 -2.57076 -0.792173 -0.135427 0.595081 31 31 27 255 
-0.0280738 -0.119071 -2.56286 0.355564 0.000984069 0.934651 14 15 13 255 
-0.0278331 -0.119074 -2.56297 0.347906 -0.0041325 0.937521 13 14 12 255 
-0.0272911 -0.11809 -2.56023 0.226592 -0.470253 0.852947 10 10 9 255 
-0.0271467 -0.117979 -2.55996 0.421981 -0.245293 0.87279 10 10 9 255 
-0.0205449 -0.117484 -2.55963 -0.935817 -0.0743976 0.344547 113 105 97 255 
-0.0205073 -0.117497 -2.55964 -0.936854 -0.0885834 0.338315 114 106 98 255 
-0.0204776 -0.117604 -2.55945 -0.958393 0.025915 0.284272 113 106 99 255 
-0.0203317 -0.117595 -2.55959 -0.95941 0.0304155 0.280369 110 101 94 255 
-0.0459886 -0.127494 -2.58435 -0.758272 0.445961 0.475544 40 40 38 255 
-0.0435608 -0.126945 -2.58314 -0.452637 -0.505247 0.734742 27 28 27 255 
-0.0421983 -0.127576 -2.58516 0.101177 0.647471 0.755344 21 21 20 255 
-0.0414962 -0.127821 -2.58634 0.519022 0.399177 0.755827 15 15 15 255 
-0.0414962 -0.127821 -2.58634 0.519022 0.399177 0.755827 15 15 15 255 
-0.0362937 -0.129434 -2.59182 0.689003 0.262314 0.675623 13 13 13 255 
-0.0296124 -0.122456 -2.57233 -0.76082 -0.294399 0.578344 37 37 36 255 
-0.0292226 -0.122437 -2.572 -0.03458 0.201108 0.978959 43 41 37 255 
-0.0290675 -0.122387 -2.57183 -0.556538 -0.243792 0.794249 40 35 31 255 
-0.0281817 -0.119346 -2.5629 0.264672 0.0332647 0.963765 21 22 19 255 
-0.0279375 -0.11931 -2.56296 0.36774 0.0275957 0.929519 25 25 23 255 
-0.0275755 -0.119317 -2.56283 -0.0186901 0.0998718 0.994825 11 11 10 255 
-0.0204085 -0.117817 -2.55947 -0.959988 0.0485894 0.275794 104 98 92 255 
-0.0204124 -0.117821 -2.55946 -0.960464 0.0582982 0.272232 104 99 92 255 
-0.0202627 -0.117817 -2.55961 -0.948304 -0.0141445 0.317049 114 105 96 255 
-0.020409 -0.117828 -2.55947 -0.959476 0.0522297 0.276906 104 98 91 255 
-0.0202564 -0.117827 -2.55962 -0.946559 -0.0250347 0.321558 108 97 87 255 
-0.0204045 -0.117837 -2.55948 -0.962151 0.0805044 0.260356 103 97 91 255 
-0.0182692 -0.118989 -2.56386 -0.959919 -0.013579 0.279949 122 119 112 255 
-0.0170017 -0.118848 -2.56301 -0.24198 0.95389 0.177595 133 129 118 255 
-0.0167695 -0.118585 -2.56263 -0.330934 0.469444 0.8186 132 128 118 255 
-0.0461391 -0.127845 -2.5845 -0.770342 0.396991 0.49897 39 38 35 255 
-0.045933 -0.127755 -2.5842 -0.747551 0.461422 0.477762 39 38 36 255 
-0.0456796 -0.127761 -2.58416 -0.78845 0.372823 0.489233 36 36 33 255 
-0.0306487 -0.122894 -2.5721 -0.359076 -0.607968 0.708124 55 56 53 255 
-0.0290674 -0.122564 -2.57167 -0.43499 0.272496 0.858213 36 31 27 255 
-0.0288361 -0.122584 -2.57164 -0.315441 0.0819283 0.945402 36 32 27 255 
-0.0279764 -0.119613 -2.56278 0.567308 -0.0385062 0.822605 17 19 15 255 
-0.0278248 -0.119506 -2.56295 0.203677 0.0808914 0.975691 18 19 18 255 
-0.0276283 -0.119525 -2.56293 -0.172264 -0.0667273 0.982788 12 13 13 255 
-0.0275141 -0.119481 -2.56276 -0.112315 -0.0233905 0.993397 9 9 9 255 
-0.0204421 -0.118016 -2.55938 -0.95662 0.0613141 0.284813 95 90 84 255 
-0.0202813 -0.118025 -2.55956 -0.939955 0.0681159 0.334432 100 89 79 255 
-0.0167316 -0.118742 -2.56246 -0.726601 0.0542394 0.684916 136 133 123 255 
-0.0426447 -0.127771 -2.58412 0.676942 0.478065 0.559645 20 20 18 255 
-0.041806 -0.128033 -2.58471 0.54894 0.470566 0.69082 13 13 12 255 
-0.0415555 -0.128197 -2.58543 0.543852 0.415909 0.728865 13 13 13 255 
-0.0415555 -0.128197 -2.58543 0.543852 0.415909 0.728865 13 13 13 255 
-0.0289655 -0.122763 -2.57162 -0.329078 0.483207 0.811307 37 31 26 255 
-0.0287099 -0.122788 -2.57161 -0.501929 0.00200392 0.864906 39 35 31 255 
-0.0276449 -0.119874 -2.56292 -0.346041 0.375869 0.859638 16 17 15 255 
-0.0278806 -0.119804 -2.56279 0.532582 -0.11354 0.838728 25 27 22 255 
-0.027729 -0.119696 -2.56295 -0.333133 0.334027 0.88173 17 18 17 255 
-0.0275307 -0.119718 -2.56294 -0.339926 0.370826 0.864256 11 12 11 255 
-0.0502253 -0.129794 -2.58758 -0.202426 -0.598415 0.775192 36 36 29 255 
-0.0417873 -0.128342 -2.58458 0.494627 0.430144 0.755196 13 13 11 255 
-0.0417341 -0.128324 -2.58478 0.564227 0.313155 0.763925 13 13 12 255 
-0.0413892 -0.128411 -2.58523 0.685984 0.462142 0.562006 13 13 13 255 
-0.041471 -0.128541 -2.58549 0.718286 0.293362 0.630876 13 13 13 255 
-0.0404659 -0.123292 -2.5703 0.38117 0.657247 0.650181 14 14 14 255 
-0.0303129 -0.123368 -2.57256 -0.861993 0.282274 0.421057 59 59 57 255 
-0.0277846 -0.120002 -2.56281 0.423075 0.257821 0.86864 27 29 25 255 
-0.0275657 -0.120043 -2.56286 -0.304393 0.483344 0.820807 12 14 12 255 
-0.0271361 -0.120035 -2.56285 0.253563 0.784382 0.566084 12 13 12 255 
-0.0267114 -0.120033 -2.56264 0.532348 -0.00617104 0.846503 15 17 15 255 
-0.0268582 -0.120033 -2.5627 -0.512472 0.831967 0.212613 10 11 10 255 
-0.0453371 -0.126122 -2.57702 0.0611627 0.0883602 0.994209 39 33 29 255 
-0.0451825 -0.125973 -2.57692 0.735954 0.262779 0.623955 33 28 24 255 
-0.0420686 -0.128563 -2.58467 0.649565 0.219762 0.727853 13 13 11 255 
-0.0406244 -0.123653 -2.57056 0.30177 0.335662 0.892337 11 11 11 255 
-0.0404115 -0.123637 -2.5706 0.336598 0.297204 0.893517 12 12 12 255 
-0.0401283 -0.123701 -2.57084 0.567934 0.300169 0.766387 12 12 12 255 
-0.0397185 -0.123887 -2.57142 0.541194 0.281617 0.792339 13 13 13 255 
-0.0389924 -0.12424 -2.57279 0.642418 0.348854 0.682349 14 15 15 255 
-0.0301889 -0.123763 -2.57251 -0.0402299 -0.0600766 0.997383 63 65 64 255 
-0.0279068 -0.120313 -2.56263 -0.420813 0.581291 0.696432 36 38 33 255 
-0.0275661 -0.120205 -2.56273 -0.322576 0.568066 0.75713 22 21 17 255 
-0.0273456 -0.12027 -2.56258 0.127612 0.824194 0.551741 13 14 12 255 
-0.0271431 -0.120171 -2.56258 0.150224 0.85211 0.501339 23 26 21 255 
-0.0268965 -0.120136 -2.56244 -0.243 0.438103 0.865457 13 16 12 255 
-0.0187929 -0.120438 -2.56439 -0.94222 0.0750934 0.32647 51 41 36 255 
-0.018008 -0.11958 -2.56212 -0.926496 0.338892 0.163575 112 110 100 255 
-0.0180795 -0.119561 -2.56212 -0.93379 0.31337 0.172732 106 103 93 255 
-0.0177343 -0.119487 -2.56188 -0.961696 0.154349 0.226531 142 138 127 255 
-0.0498372 -0.130424 -2.58759 -0.161301 0.955967 0.24517 39 39 32 255 
-0.0490588 -0.13138 -2.59049 -0.602864 -0.208813 0.770034 49 47 40 255 
-0.0453077 -0.12618 -2.57661 0.059791 0.073967 0.995467 35 33 27 255 
-0.045101 -0.126246 -2.57675 0.726114 0.244516 0.642628 29 27 22 255 
-0.0306875 -0.124079 -2.57282 -0.848465 -0.00577993 0.52922 42 39 36 255 
-0.0308189 -0.124191 -2.57296 -0.817451 -0.163082 0.55243 41 36 32 255 
-0.0306054 -0.124011 -2.57251 -0.891523 0.149798 0.427489 45 41 38 255 
-0.0300846 -0.123804 -2.57193 0.40292 0.69237 0.598564 36 34 30 255 
-0.0295279 -0.123792 -2.57194 -0.494301 -0.513969 0.701072 34 33 29 255 
-0.0278166 -0.120479 -2.56259 -0.514197 0.267501 0.814889 33 35 31 255 
-0.0275319 -0.120342 -2.56259 -0.814888 0.0559731 0.576909 22 20 18 255 
-0.0272136 -0.120308 -2.5624 -0.070105 0.814889 0.575361 25 29 22 255 
-0.0268646 -0.120258 -2.56225 -0.259332 0.441702 0.858863 14 19 13 255 
-0.0248372 -0.120052 -2.56176 -0.848961 0.481168 0.218502 8 9 8 255 
-0.0248804 -0.119923 -2.56129 -0.84827 0.47873 0.226398 10 10 9 255 
-0.024885 -0.120061 -2.56165 -0.715382 0.674512 0.182381 11 11 10 255 
-0.0247098 -0.120313 -2.56246 -0.841982 0.497306 0.209173 10 10 8 255 
-0.0246935 -0.119971 -2.56156 -0.84214 0.496987 0.209295 8 8 8 255 
-0.0180786 -0.119842 -2.56231 -0.941484 0.28666 0.177294 85 84 78 255 
-0.0498306 -0.130566 -2.58793 -0.10677 0.968741 0.223921 36 36 30 255 
-0.0501278 -0.131334 -2.58921 -0.649264 -0.14488 0.746636 22 25 19 255 
-0.0494749 -0.131591 -2.59053 -0.739187 0.269339 0.6173 26 27 21 255 
-0.0488937 -0.132351 -2.59292 -0.0942814 0.974408 0.204059 37 35 30 255 
-0.0480942 -0.132285 -2.59238 -0.300095 -0.463577 0.83369 19 23 19 255 
-0.0482561 -0.132376 -2.59241 -0.64172 -0.214608 0.736301 21 24 20 255 
-0.0413104 -0.125673 -2.57493 0.669199 0.0835023 0.738377 13 15 12 255 
-0.0412867 -0.125723 -2.57516 0.670344 0.0651313 0.739187 14 15 13 255 
-0.0404911 -0.124075 -2.57049 0.641803 0.105531 0.759573 12 15 11 255 
-0.0401274 -0.12414 -2.57043 0.768529 0.365585 0.525082 12 13 11 255 
-0.0398379 -0.124228 -2.571 0.594376 -0.0397233 0.803206 11 13 11 255 
-0.0396042 -0.124479 -2.57144 0.614674 0.49767 0.611965 13 14 14 255 
-0.0394034 -0.124524 -2.57146 0.586242 0.569421 0.576264 13 14 13 255 
-0.0319998 -0.124771 -2.57361 -0.0706891 -0.0772568 0.994502 43 39 35 255 
-0.027031 -0.120532 -2.56209 0.00499083 0.73644 0.676484 60 68 56 255 
-0.0267491 -0.12054 -2.56238 0.135629 0.638464 0.757607 17 22 14 255 
-0.026533 -0.120659 -2.56233 0.00254458 0.564649 0.825327 19 24 16 255 
-0.0263571 -0.120527 -2.56228 -0.18974 0.961714 0.197751 22 26 20 255 
-0.0250731 -0.120207 -2.5615 -0.882677 0.39129 0.260334 19 21 17 255 
-0.0249684 -0.120632 -2.56282 -0.349508 0.731058 0.586002 16 17 15 255 
-0.0249825 -0.120125 -2.5613 -0.854699 0.446063 0.265552 22 24 20 255 
-0.0248337 -0.120082 -2.5612 -0.340897 0.094684 0.93532 15 17 14 255 
-0.0241959 -0.119976 -2.56075 -0.445887 0.78309 0.433537 13 16 13 255 
-0.04962 -0.131102 -2.58835 -0.603992 -0.308335 0.734931 22 25 19 255 
-0.0420437 -0.125414 -2.57358 0.661398 0.0258778 0.749589 19 23 17 255 
-0.0405509 -0.124382 -2.57064 0.627312 0.0338155 0.778033 20 25 19 255 
-0.0404619 -0.12434 -2.57065 0.639289 0.100087 0.762426 15 19 13 255 
-0.0394632 -0.124729 -2.57152 0.6184 0.483793 0.619295 16 19 15 255 
-0.0394667 -0.124725 -2.57151 0.619155 0.483191 0.61901 17 19 15 255 
-0.0395768 -0.124623 -2.57155 0.624446 0.467153 0.625967 13 15 12 255 
-0.0394278 -0.124731 -2.57179 0.586658 0.569594 0.575669 12 15 12 255 
-0.039407 -0.124846 -2.57174 0.591752 0.560915 0.578967 18 21 16 255 
-0.0267658 -0.12068 -2.56209 0.161537 0.695735 0.699899 25 32 21 255 
-0.0256138 -0.120961 -2.56261 -0.187408 0.76033 0.621914 26 33 24 255 
-0.0240819 -0.120136 -2.56066 -0.536483 0.699198 0.472555 21 25 20 255 
-0.0235655 -0.11963 -2.55929 -0.137577 0.97518 0.173482 18 21 18 255 
-0.0178121 -0.120446 -2.56266 -0.61153 0.570326 0.548416 51 51 49 255 
-0.0466146 -0.127148 -2.57661 -0.151863 0.565996 0.8103 21 26 17 255 
-0.0464376 -0.126792 -2.57565 -0.608179 0.552884 0.569594 18 22 14 255 
-0.0459387 -0.126749 -2.5758 -0.680782 0.609855 0.405725 21 26 17 255 
-0.0402727 -0.124569 -2.57068 0.622645 0.0394098 0.781512 25 31 23 255 
-0.040315 -0.126403 -2.57546 0.256483 -0.359725 0.897114 27 33 24 255 
-0.0399991 -0.124727 -2.57049 0.615638 0.501662 0.607721 33 42 29 255 
-0.0395292 -0.124983 -2.57133 0.63975 0.396366 0.658494 31 38 27 255 
-0.0271701 -0.120827 -2.56194 -0.0946603 0.773583 0.626584 20 24 19 255 
-0.0219848 -0.119394 -2.55835 -0.935098 0.19772 0.294108 39 42 38 255 
-0.0464359 -0.127055 -2.57574 -0.385661 0.815312 0.431894 23 26 20 255 
-0.0460699 -0.12677 -2.57524 -0.691383 0.602144 0.399265 17 20 14 255 
-0.0397772 -0.125 -2.57054 0.611342 0.489403 0.621889 20 27 15 255 
-0.0393923 -0.125081 -2.57094 0.21084 0.919073 0.332943 16 21 14 255 
-0.0390849 -0.125135 -2.57116 0.684141 0.470977 0.556895 28 32 26 255 
-0.0290132 -0.1211 -2.56159 -0.3073 0.930317 0.200194 20 24 19 255 
-0.0239715 -0.120876 -2.56125 -0.109514 -0.556425 0.823649 15 20 14 255 
-0.0462913 -0.127178 -2.57553 -0.746564 0.123569 0.653738 13 15 11 255 
-0.0396735 -0.125111 -2.57034 0.580087 0.551318 0.599623 14 19 12 255 
-0.0396774 -0.125105 -2.57028 0.585293 0.53907 0.60567 14 19 12 255 
-0.022445 -0.120225 -2.55906 -0.681342 0.265905 0.681958 20 23 19 255 
-0.0166277 -0.120897 -2.56205 -0.801116 -0.403334 0.442193 39 32 29 255 
-0.0470286 -0.128114 -2.57664 -0.0578078 -0.466597 0.882579 10 12 9 255 
-0.0284959 -0.121132 -2.55964 -0.570575 -0.396481 0.719198 18 21 17 255 
-0.0285115 -0.120903 -2.55902 -0.613681 -0.407477 0.676283 17 19 16 255 
-0.0274379 -0.12051 -2.55818 -0.696854 -0.313436 0.645099 10 12 9 255 
-0.0265522 -0.120272 -2.55713 -0.20046 0.967019 0.15713 15 17 14 255 
-0.026277 -0.120234 -2.55694 -0.193203 0.96844 0.157472 12 14 11 255 
-0.022117 -0.120236 -2.55751 -0.363748 0.923629 0.120818 17 22 17 255 
-0.0274643 -0.121049 -2.55812 -0.65398 -0.354313 0.66841 8 10 8 255 
-0.0250477 -0.120819 -2.55819 0.0641635 0.366658 0.928141 9 11 8 255 
-0.0246359 -0.120648 -2.5576 -0.641341 0.755488 0.133866 11 13 11 255 
-0.0245935 -0.121112 -2.55651 -0.856989 -0.156935 0.490857 8 9 8 255 
-0.0271763 -0.121321 -2.55599 -0.734045 -0.275996 0.620486 19 20 17 255 
-0.0271763 -0.121321 -2.55599 -0.734045 -0.275996 0.620486 19 20 17 255 
-0.0187028 -0.0757185 -2.57609 -0.744434 -0.527491 0.409355 229 228 228 255 
-0.0242836 -0.076795 -2.5802 -0.661114 -0.726861 0.186016 234 230 228 255 
-0.0235662 -0.0769299 -2.57954 -0.573264 -0.716739 0.397056 232 230 226 255 
-0.0244577 -0.0767948 -2.58049 -0.726123 -0.655476 0.207599 237 235 230 255 
-0.0235257 -0.077154 -2.57977 -0.658397 -0.564079 0.498326 233 231 228 255 
-0.0234586 -0.0771588 -2.57978 -0.901193 0.0109341 0.433281 234 233 230 255 
-0.0269595 -0.0774208 -2.58241 -0.659405 -0.716636 0.227194 236 233 229 255 
-0.027939 -0.0778277 -2.58271 -0.72264 -0.63512 0.272788 234 232 227 255 
-0.0269724 -0.0777362 -2.5824 -0.676204 0.050673 0.73497 234 230 225 255 
-0.0321565 -0.0775437 -2.58563 -0.0700695 -0.974146 0.214781 79 74 55 255 
-0.0285123 -0.0778661 -2.58377 -0.794544 -0.525563 0.304111 236 234 231 255 
-0.0280212 -0.078029 -2.58252 -0.791975 -0.535792 0.292751 235 233 229 255 
-0.0275156 -0.0782964 -2.58266 -0.834248 -0.127485 0.536449 240 238 236 255 
-0.0297298 -0.0782047 -2.58457 -0.770477 -0.558574 0.307182 230 228 225 255 
-0.0277058 -0.0785521 -2.58277 -0.856581 -0.244146 0.454602 240 239 237 255 
-0.0336944 -0.078612 -2.58702 -0.482978 -0.825212 0.292843 92 95 125 255 
-0.0323932 -0.0786241 -2.58639 0.186566 -0.949339 0.25288 234 235 233 255 
-0.0323932 -0.0786241 -2.58639 0.186566 -0.949339 0.25288 234 235 233 255 
-0.0313855 -0.0787512 -2.58559 -0.816005 -0.448544 0.364614 227 226 225 255 
-0.033942 -0.0788626 -2.58708 -0.10936 -0.965924 0.234588 129 132 171 255 
-0.0298738 -0.0794337 -2.58437 -0.40252 -0.490445 0.772943 231 230 228 255 
-0.0327652 -0.0796806 -2.58645 -0.426955 0.0479845 0.902999 238 238 236 255 
-0.0304488 -0.0798348 -2.5849 -0.708426 0.000493672 0.705785 239 239 238 255 
-0.0392671 -0.0794046 -2.58971 0.0647731 -0.961768 0.266097 238 239 231 255 
-0.0344786 -0.0795788 -2.58797 -0.594065 -0.642468 0.484067 242 242 241 255 
-0.0331951 -0.0798593 -2.58683 -0.504954 0.0589341 0.861132 242 241 241 255 
-0.0329757 -0.0797262 -2.58664 -0.683403 -0.195047 0.703503 244 243 242 255 
-0.0327609 -0.0798357 -2.58642 -0.757804 0.144452 0.636292 238 238 237 255 
-0.0367007 -0.0796997 -2.58955 -0.335738 -0.889592 0.309686 225 228 235 255 
-0.0346713 -0.0797985 -2.58794 -0.492412 -0.8147 0.30626 234 235 234 255 
-0.0346713 -0.0797985 -2.58794 -0.492412 -0.8147 0.30626 234 235 234 255 
-0.0327969 -0.0802617 -2.5865 -0.582395 0.182253 0.792212 245 245 244 255 
-0.0329754 -0.0800268 -2.58667 -0.559458 0.022009 0.828566 245 245 244 255 
-0.0342188 -0.0801222 -2.58769 -0.260938 0.00482717 0.965344 242 243 242 255 
-0.0326466 -0.0805282 -2.58632 -0.565321 0.123394 0.81559 241 241 240 255 
-0.0189395 -0.0828406 -2.57443 -0.825535 -0.406422 0.391553 221 221 220 255 
-0.0187294 -0.0829011 -2.57426 -0.820652 -0.325808 0.469446 225 225 224 255 
-0.0226429 -0.0828347 -2.57674 -0.482858 -0.839476 0.249256 50 47 40 255 
-0.0377018 -0.080199 -2.59073 -0.563452 -0.751184 0.343866 233 231 227 255 
-0.0214962 -0.0827278 -2.5772 -0.533862 -0.733873 0.420026 47 45 40 255 
-0.0212289 -0.0826268 -2.57756 -0.424249 -0.774788 0.46874 49 46 41 255 
-0.0213695 -0.0826279 -2.57773 -0.251636 -0.893607 0.371679 46 44 39 255 
-0.020803 -0.0826025 -2.57765 -0.555955 -0.805586 0.204805 50 47 42 255 
-0.0436037 -0.0801396 -2.59373 -0.0161585 -0.954014 0.299327 242 241 238 255 
-0.0436037 -0.0801396 -2.59373 -0.0161585 -0.954014 0.299327 242 241 238 255 
-0.0436037 -0.0801396 -2.59373 -0.0161585 -0.954014 0.299327 242 241 238 255 
-0.0432543 -0.0801871 -2.59408 0.0287372 -0.938765 0.343358 204 206 181 255 
-0.0432559 -0.0801762 -2.59411 0.0264415 -0.94083 0.337846 205 207 182 255 
-0.0402841 -0.0802151 -2.59224 0.217498 -0.922946 0.317593 85 89 114 255 
-0.0208721 -0.0828133 -2.57779 -0.584692 -0.786522 0.198794 45 43 37 255 
-0.0432056 -0.0808416 -2.59388 0.0554213 -0.955266 0.290509 59 61 63 255 
-0.0268511 -0.0837808 -2.58005 0.12081 -0.951754 0.28208 48 46 42 255 
-0.0267769 -0.0838726 -2.58067 0.139642 -0.932656 0.332645 46 44 38 255 
-0.0265075 -0.0838444 -2.58006 -0.357868 -0.771101 0.526625 47 46 41 255 
-0.0242633 -0.0836371 -2.58058 -0.833964 -0.420696 0.357099 46 43 38 255 
-0.023817 -0.0839468 -2.57992 -0.389865 -0.875616 0.285134 26 26 22 255 
-0.0487155 -0.0815802 -2.59793 0.169391 -0.941172 0.292405 227 230 216 255 
-0.0344538 -0.0832188 -2.58671 -0.731765 -0.559248 0.389566 226 224 223 255 
-0.0322808 -0.0832938 -2.58547 -0.492733 0.00842876 0.87014 228 229 227 255 
-0.0276613 -0.0841615 -2.58074 -0.381255 -0.838359 0.389614 47 44 42 255 
-0.0235706 -0.0840799 -2.58013 -0.28911 -0.915333 0.280324 16 17 16 255 
-0.0227407 -0.0842369 -2.57949 0.348614 0.389049 0.852707 16 18 17 255 
-0.0323784 -0.083591 -2.58532 -0.433317 0.303199 0.848709 230 230 229 255 
-0.0301341 -0.084277 -2.58232 -0.51196 -0.807694 0.292452 120 117 77 255 
-0.0271206 -0.0839638 -2.58201 -0.644049 -0.711549 0.280891 46 44 40 255 
-0.0268863 -0.0840742 -2.58168 -0.407906 -0.796324 0.446634 44 43 39 255 
-0.0267483 -0.0840872 -2.58225 -0.558344 -0.779937 0.282754 44 42 38 255 
-0.0205026 -0.0846085 -2.57784 -0.720968 -0.632181 0.283817 18 21 27 255 
-0.020919 -0.0852075 -2.57515 0.175005 0.00340687 0.984562 18 21 24 255 
-0.0208565 -0.0853042 -2.57558 -0.644362 -0.712334 0.278171 22 32 49 255 
-0.0503446 -0.0820146 -2.59892 0.309513 -0.912164 0.268623 221 223 214 255 
-0.0455951 -0.0822883 -2.59667 -0.218103 -0.897867 0.382446 235 234 233 255 
-0.0545669 -0.0818853 -2.60201 -0.224374 -0.864675 0.449437 216 231 242 255 
-0.0542393 -0.0817437 -2.60173 -0.374052 -0.778179 0.504501 214 230 243 255 
-0.0541791 -0.0818157 -2.602 -0.388286 -0.689747 0.611133 215 231 241 255 
-0.0540939 -0.0819341 -2.60218 -0.491474 -0.542945 0.680929 215 230 235 255 
-0.051193 -0.0822828 -2.5989 0.107027 -0.932125 0.345959 225 226 224 255 
-0.0290639 -0.0848991 -2.58204 -0.190816 -0.90794 0.373141 44 43 40 255 
-0.0538111 -0.082083 -2.60208 -0.569038 -0.537073 0.622694 200 208 207 255 
-0.0511543 -0.0824689 -2.60004 0.340913 -0.884943 0.31726 98 103 90 255 
-0.0286883 -0.0847711 -2.58271 -0.163318 -0.913571 0.372445 43 42 39 255 
-0.0283373 -0.0847169 -2.58328 -0.166995 -0.920133 0.354214 43 42 39 255 
-0.0275564 -0.0846823 -2.58343 -0.382463 -0.879635 0.282779 37 37 33 255 
-0.0262003 -0.0846613 -2.58315 -0.472354 -0.838718 0.270987 17 19 18 255 
-0.0262058 -0.0846805 -2.58305 -0.308348 -0.912165 0.269956 17 19 18 255 
-0.0226963 -0.0847871 -2.58287 -0.827124 -0.436281 0.354295 26 42 72 255 
-0.0318051 -0.0852169 -2.58444 -0.668595 -0.385086 0.636152 235 235 234 255 
-0.0274649 -0.0850896 -2.58366 -0.712839 -0.626531 0.31515 19 20 20 255 
-0.0424943 -0.0843726 -2.59343 -0.330718 0.524025 0.784871 243 243 242 255 
-0.0407999 -0.0848038 -2.59189 -0.366122 -0.0121701 0.930487 240 240 238 255 
-0.0318241 -0.0857032 -2.58461 -0.590048 0.341787 0.731454 234 234 233 255 
-0.0212908 -0.0864577 -2.57849 -0.376754 0.453473 0.807725 85 114 144 255 
-0.047822 -0.0853834 -2.59308 -0.622967 -0.593284 0.50983 237 237 237 255 
-0.0408366 -0.0850824 -2.59198 -0.397385 0.500147 0.769375 242 242 240 255 
-0.032061 -0.0860607 -2.58541 -0.0228018 0.164438 0.986124 240 240 238 255 
-0.0309881 -0.0862305 -2.58328 -0.432633 0.0508627 0.900134 234 234 233 255 
-0.0214812 -0.086726 -2.57839 -0.441877 0.280522 0.852087 86 109 134 255 
-0.0422833 -0.0852292 -2.59305 -0.371102 -0.0948964 0.92373 241 241 239 255 
-0.0396733 -0.0861614 -2.58883 -0.637641 -0.632029 0.440402 238 239 236 255 
-0.0309487 -0.0865646 -2.58358 -0.181448 0.394884 0.900635 229 229 228 255 
-0.0264588 -0.0856711 -2.5861 0.405818 -0.0615185 0.911881 30 44 77 255 
-0.0215952 -0.0869506 -2.57849 -0.347601 0.37299 0.860263 106 116 128 255 
-0.0213714 -0.0869842 -2.57825 -0.425557 0.342223 0.837726 84 111 140 255 
-0.0214378 -0.087963 -2.57426 -0.621116 0.576813 0.530567 64 91 120 255 
-0.0345191 -0.0864104 -2.58676 -0.843672 -0.2569 0.471403 235 235 235 255 
-0.0214973 -0.0872106 -2.57834 -0.472536 0.329376 0.817448 84 103 123 255 
-0.0477917 -0.0857133 -2.59571 -0.0315701 -0.699727 0.713713 240 240 239 255 
-0.0368053 -0.0866092 -2.58739 -0.467832 -0.49188 0.734294 50 48 46 255 
-0.0339884 -0.0870134 -2.58577 -0.820819 0.155651 0.549572 230 230 230 255 
-0.0247904 -0.0871902 -2.58115 -0.788244 0.0161922 0.61515 137 141 147 255 
-0.0219258 -0.0874679 -2.57844 -0.0999525 0.206107 0.973411 150 150 151 255 
-0.0215187 -0.0875367 -2.57805 -0.30901 0.161335 0.937275 81 102 125 255 
-0.0479977 -0.0856261 -2.59783 0.799494 -0.349878 0.488257 223 220 208 255 
-0.0341682 -0.0872618 -2.58585 -0.616291 0.285077 0.734109 237 237 236 255 
-0.0337777 -0.0871251 -2.58561 -0.711381 0.167885 0.68246 233 233 232 255 
-0.0252177 -0.0874576 -2.58114 -0.481019 0.123456 0.867974 144 150 157 255 
-0.0248237 -0.0875147 -2.58108 -0.739131 0.110619 0.664417 141 145 148 255 
-0.0245768 -0.0873504 -2.581 -0.320709 0.167088 0.932324 90 111 132 255 
-0.0343228 -0.0874474 -2.58619 -0.107451 0.120483 0.986883 236 236 235 255 
-0.0339588 -0.087339 -2.58573 -0.777938 -0.114603 0.617801 237 237 236 255 
-0.0340672 -0.0874434 -2.58573 -0.784936 0.249378 0.567173 237 237 236 255 
-0.025389 -0.0877566 -2.58171 -0.608827 0.0666494 0.790498 105 131 157 255 
-0.0215937 -0.0882091 -2.57815 -0.423053 0.219775 0.879048 132 138 146 255 
-0.0214677 -0.0879783 -2.57809 -0.385158 0.167237 0.907571 83 102 123 255 
-0.0186727 -0.0897142 -2.56927 -0.584353 -0.762404 0.277978 67 62 45 255 
-0.0406316 -0.0872923 -2.59027 -0.155198 -0.91438 0.373928 47 46 44 255 
-0.0256327 -0.0881486 -2.58106 -0.542375 -0.142769 0.827917 105 130 157 255 
-0.0252463 -0.0879516 -2.58108 -0.515031 0.142568 0.845232 129 140 150 255 
-0.0251869 -0.0878976 -2.58126 -0.886929 0.0943133 0.452174 121 132 142 255 
-0.0249631 -0.0881222 -2.58101 -0.617941 0.176517 0.766153 153 154 155 255 
-0.0247382 -0.0880288 -2.58084 -0.609556 0.155053 0.777432 124 131 139 255 
-0.0345973 -0.0880723 -2.58623 -0.720959 0.212685 0.659532 233 233 231 255 
-0.0343443 -0.0881573 -2.58594 -0.541134 0.449109 0.710968 232 232 230 255 
-0.0252641 -0.08836 -2.58088 -0.803012 -0.179017 0.568441 131 143 153 255 
-0.0246424 -0.0884956 -2.58069 -0.427002 0.239788 0.871878 98 112 128 255 
-0.0178023 -0.0896584 -2.57139 -0.557699 -0.791801 0.249043 54 54 55 255 
-0.0398576 -0.0874967 -2.59232 -0.546616 -0.57393 0.609767 46 44 41 255 
-0.0378399 -0.0873379 -2.59188 -0.495655 -0.77107 0.399722 32 32 29 255 
-0.0379178 -0.087604 -2.59196 -0.553395 -0.724761 0.410458 24 25 25 255 
-0.0375722 -0.0874624 -2.59136 -0.631867 -0.64816 0.425008 26 26 25 255 
-0.0255953 -0.088571 -2.58128 -0.292573 0.162452 0.942343 115 141 168 255 
-0.0253734 -0.0885242 -2.5811 -0.793574 -0.151814 0.589231 109 130 153 255 
-0.0248015 -0.0887467 -2.58071 -0.320708 0.153654 0.934632 149 151 154 255 
-0.0425104 -0.0879663 -2.59256 -0.221375 -0.817185 0.532166 44 43 43 255 
-0.0406717 -0.087904 -2.59266 -0.414402 -0.802345 0.42955 45 43 40 255 
-0.0402954 -0.0877152 -2.59256 -0.493367 -0.753421 0.434679 46 45 41 255 
-0.0401984 -0.0878679 -2.59322 -0.0575842 -0.929976 0.363082 42 42 38 255 
-0.0393072 -0.0877804 -2.59273 -0.223226 -0.888244 0.401488 29 30 28 255 
-0.0254401 -0.0890387 -2.58094 -0.67639 0.16252 0.71839 101 123 151 255 
-0.0252178 -0.0889953 -2.58082 -0.81723 -0.0666235 0.572449 125 137 148 255 
-0.0255933 -0.0893909 -2.58071 0.185995 0.469449 0.863147 98 121 150 255 
-0.0254688 -0.0891551 -2.58074 -0.699378 0.451173 0.554359 110 130 155 255 
-0.0396513 -0.0881231 -2.59387 -0.425391 -0.809513 0.404638 21 24 25 255 
-0.042023 -0.0884669 -2.59505 -0.0557365 -0.923439 0.379675 26 27 26 255 
-0.0214723 -0.0904339 -2.57465 -0.335251 -0.378152 0.862907 50 49 45 255 
-0.0208074 -0.0908112 -2.57403 -0.350812 -0.569141 0.743646 179 182 197 255 
-0.0218201 -0.0919103 -2.57428 -0.92073 0.129882 0.36795 229 225 222 255 
-0.0513497 -0.0903175 -2.59916 -0.0359262 -0.305891 0.951388 50 50 48 255 
-0.0418852 -0.0898778 -2.59816 0.799381 0.113314 0.590042 91 110 140 255 
-0.0497447 -0.0902811 -2.60128 -0.50266 0.540171 0.674943 41 42 41 255 
-0.0497339 -0.0902766 -2.60119 -0.407754 0.443075 0.798386 42 43 42 255 
-0.041626 -0.0902473 -2.59777 0.383385 0.183788 0.905118 111 137 161 255 
-0.0260647 -0.0923906 -2.57794 -0.274636 -0.346785 0.896836 228 227 222 255 
-0.0308898 -0.0926735 -2.58099 0.0405512 -0.915838 0.399496 65 59 50 255 
-0.021062 -0.0929984 -2.57367 -0.526786 0.17819 0.831111 236 235 233 255 
-0.0555904 -0.0915782 -2.60524 -0.524643 -0.626643 0.576254 45 46 45 255 
-0.0553114 -0.0916241 -2.60521 -0.627894 -0.225163 0.745018 42 44 42 255 
-0.030695 -0.093057 -2.58166 -0.528906 -0.103874 0.8423 69 70 82 255 
-0.0259853 -0.0933646 -2.57757 -0.0766358 0.450587 0.889437 232 228 224 255 
-0.055851 -0.0920041 -2.60535 -0.169827 -0.820518 0.545811 39 41 40 255 
-0.0555782 -0.0920179 -2.60488 -0.107277 -0.862828 0.493982 38 40 39 255 
-0.0262014 -0.0935172 -2.57769 -0.86098 0.234122 0.451554 228 225 220 255 
-0.0364575 -0.0933803 -2.58527 0.218575 0.601364 0.768497 218 218 213 255 
-0.0265311 -0.093778 -2.57809 -0.80321 0.136309 0.57989 230 227 222 255 
-0.0263406 -0.0939317 -2.57764 -0.745154 -0.017562 0.666661 233 230 225 255 
-0.0263597 -0.0936575 -2.5779 -0.881066 0.180981 0.437 231 228 223 255 
-0.026173 -0.093788 -2.57751 -0.736074 0.102119 0.669154 230 226 221 255 
-0.0509208 -0.0924963 -2.6035 0.793529 0.0508248 0.606406 84 98 119 255 
-0.0396555 -0.0934362 -2.59009 -0.25065 0.736792 0.627942 115 135 163 255 
-0.0350404 -0.0937629 -2.58445 -0.30543 -0.330577 0.89299 58 53 47 255 
-0.0216953 -0.0941481 -2.57364 -0.813055 -0.492979 0.309698 236 234 231 255 
-0.0514735 -0.0931066 -2.60345 -0.332361 0.0614301 0.94115 95 118 137 255 
-0.0403381 -0.0942996 -2.58672 -0.540549 -0.68698 0.485661 147 160 178 255 
-0.0434322 -0.0939188 -2.59475 -0.0765851 0.120737 0.989726 36 38 38 255 
-0.0227727 -0.0947417 -2.57425 -0.732762 -0.585513 0.346749 237 235 232 255 
-0.0411229 -0.0947243 -2.58705 0.295865 -0.857409 0.421087 194 195 198 255 
-0.0321399 -0.0949159 -2.58239 -0.784587 -0.340582 0.5181 230 228 223 255 
-0.0227627 -0.0950958 -2.57452 -0.594015 -0.0292077 0.803923 236 235 232 255 
-0.0314669 -0.0954514 -2.58154 -0.665054 0.235158 0.708805 235 232 228 255 
-0.0279436 -0.0955056 -2.57855 -0.546398 -0.243211 0.801435 239 237 234 255 
-0.0414831 -0.0955127 -2.58949 -0.0492054 -0.888586 0.456063 53 50 48 255 
-0.0405206 -0.0954141 -2.58931 -0.0829775 -0.710342 0.698948 53 53 55 255 
-0.0302915 -0.0956562 -2.58044 -0.723036 0.0339624 0.689976 235 234 230 255 
-0.0341502 -0.0959933 -2.58372 -0.468037 0.328659 0.82032 236 234 229 255 
-0.0338778 -0.0960862 -2.58356 0.0394063 0.147206 0.988321 231 229 224 255 
-0.0299768 -0.0961301 -2.58043 -0.585694 -0.694882 0.417256 237 236 232 255 
-0.039451 -0.0963997 -2.58806 -0.588511 -0.633285 0.502597 230 227 222 255 
-0.0387848 -0.0965045 -2.58724 -0.274324 0.316488 0.908065 235 233 229 255 
-0.03386 -0.0964632 -2.5834 -0.546732 0.0947405 0.83193 236 234 230 255 
-0.04427 -0.096805 -2.59169 -0.00472049 -0.886929 0.461881 126 129 145 255 
-0.0348969 -0.0971595 -2.58385 -0.564432 -0.680223 0.467669 238 237 234 255 
-0.0471183 -0.0979812 -2.59372 -0.414834 -0.732264 0.540094 224 224 216 255 
-0.0450909 -0.0980246 -2.59179 -0.393148 -0.700409 0.595703 227 224 218 255 
-0.044172 -0.0979242 -2.59213 -0.339253 -0.79072 0.509578 227 226 221 255 
-0.0174311 -0.097796 -2.56936 -0.74471 0.0698553 0.663723 214 212 209 255 
-0.043926 -0.0982037 -2.59172 -0.343953 -0.772869 0.533264 231 230 225 255 
-0.0176053 -0.0979131 -2.56948 -0.683652 -0.16382 0.711184 216 215 211 255 
-0.0211849 -0.0982528 -2.57277 -0.425349 -0.269712 0.863906 52 48 44 255 
-0.0208705 -0.0984647 -2.57273 -0.20609 -0.117436 0.971461 49 45 40 255 
-0.0466635 -0.0993045 -2.59321 -0.612649 -0.400323 0.681471 230 229 224 255 
-0.0380765 -0.0989516 -2.58599 -0.4265 -0.343236 0.836832 239 238 235 255 
-0.0227755 -0.0987317 -2.57391 -0.55993 -0.41441 0.717456 53 48 42 255 
-0.0571822 -0.099666 -2.60165 -0.506805 -0.561917 0.653757 52 53 50 255 
-0.0316166 -0.099196 -2.58078 -0.612991 0.247755 0.75024 217 216 213 255 
-0.022 -0.0990301 -2.57426 -0.380563 -0.830069 0.407625 31 30 26 255 
-0.0209133 -0.0990966 -2.5726 -0.672711 -0.651246 0.351196 18 19 18 255 
-0.0519409 -0.10006 -2.59768 -0.317448 -0.699987 0.639723 222 221 216 255 
-0.0230119 -0.0991383 -2.5762 -0.234963 -0.422996 0.875138 47 42 38 255 
-0.0228442 -0.0992172 -2.57557 -0.652216 -0.658886 0.374811 34 32 28 255 
-0.021591 -0.0991452 -2.57508 -0.317142 -0.451798 0.833846 18 18 16 255 
-0.0212173 -0.0991827 -2.57457 -0.762512 -0.54619 0.346772 17 18 17 255 
-0.0208794 -0.0992035 -2.57312 -0.804228 -0.302757 0.511424 16 19 17 255 
-0.0173507 -0.0991256 -2.56908 -0.846033 0.106121 0.522461 211 209 205 255 
-0.017251 -0.0992632 -2.56887 -0.890603 0.0252065 0.454083 211 209 206 255 
-0.0518813 -0.100342 -2.59766 -0.309395 -0.763086 0.567428 221 220 215 255 
-0.0248085 -0.0994401 -2.57733 0.187963 -0.785666 0.589406 47 45 38 255 
-0.0242636 -0.0994098 -2.57705 0.0971264 -0.741953 0.663379 48 45 41 255 
-0.0217547 -0.0993308 -2.57556 -0.495514 -0.756617 0.42661 17 18 17 255 
-0.051796 -0.100631 -2.59747 -0.285174 -0.657533 0.697371 221 220 215 255 
-0.0280933 -0.0998693 -2.57751 0.00391106 -0.552904 0.833236 50 45 41 255 
-0.0265521 -0.0997551 -2.57815 0.247694 -0.74055 0.624687 48 44 39 255 
-0.0186113 -0.0996851 -2.57001 -0.42666 0.210845 0.879492 212 211 207 255 
-0.0510507 -0.10109 -2.59641 -0.325337 -0.741804 0.586415 224 222 218 255 
-0.0281906 -0.100203 -2.57786 -0.729106 -0.527202 0.43642 45 42 38 255 
-0.0178895 -0.0999136 -2.56924 -0.550072 0.0720485 0.832004 217 215 212 255 
-0.053312 -0.101328 -2.59855 -0.151408 -0.442154 0.884068 221 220 216 255 
-0.0543582 -0.101704 -2.59945 -0.570075 -0.507365 0.646216 222 219 212 255 
-0.0480952 -0.101528 -2.59372 -0.197462 -0.81273 0.548159 210 199 186 255 
-0.030369 -0.100781 -2.57948 -0.847537 0.173432 0.5016 215 213 209 255 
-0.0303574 -0.100779 -2.57941 -0.77904 0.196587 0.595357 214 213 209 255 
-0.0177477 -0.10035 -2.56895 -0.672258 -0.465308 0.57581 210 207 204 255 
-0.0202461 -0.100698 -2.57401 -0.766887 -0.530184 0.361649 17 19 18 255 
-0.0203379 -0.100859 -2.5738 -0.768003 -0.528001 0.362474 18 20 19 255 
-0.0384593 -0.102031 -2.5845 -0.252639 -0.804283 0.537868 184 177 165 255 
-0.0533742 -0.103209 -2.59781 -0.267349 0.461477 0.84591 225 225 221 255 
-0.0533742 -0.103209 -2.59781 -0.267349 0.461477 0.84591 223 223 219 255 
-0.0369385 -0.102296 -2.58445 -0.604022 -0.587682 0.538319 50 46 42 255 
-0.0505226 -0.103148 -2.59558 -0.633655 -0.232102 0.737977 223 222 218 255 
-0.0238717 -0.10184 -2.57675 -0.776834 0.39109 0.493536 24 28 28 255 
-0.0404333 -0.103262 -2.58689 -0.360601 -0.270535 0.892624 45 42 38 255 
-0.0358186 -0.10314 -2.58305 -0.784266 0.0244365 0.619943 22 22 21 255 
-0.0592997 -0.104624 -2.60286 -0.0685648 -0.824259 0.562046 181 156 140 255 
-0.0412129 -0.103653 -2.59024 0.154512 -0.365117 0.91805 42 41 37 255 
-0.0428377 -0.103965 -2.58895 -0.310341 -0.763832 0.565906 41 41 37 255 
-0.0184465 -0.102577 -2.56949 -0.516895 0.145277 0.843632 208 207 204 255 
-0.0339683 -0.103705 -2.58148 -0.692534 -0.301871 0.655187 213 210 205 255 
-0.019203 -0.102829 -2.56975 -0.796795 -0.0392565 0.602973 196 164 144 255 
-0.0488476 -0.106045 -2.59416 -0.675928 -0.347115 0.650102 28 28 26 255 
-0.0357075 -0.105115 -2.58429 -0.846549 0.105629 0.521725 23 28 29 255 
-0.0195228 -0.10384 -2.57222 -0.878299 0.156484 0.451779 39 41 38 255 
-0.0599262 -0.107334 -2.60164 -0.274143 -0.714563 0.643619 177 178 167 255 
-0.0515116 -0.106713 -2.598 0.0279983 -0.196029 0.980198 28 29 27 255 
-0.0200575 -0.103929 -2.56963 -0.435273 0.113333 0.893137 40 43 40 255 
-0.0180022 -0.103772 -2.56821 -0.820442 -0.42358 0.383999 210 206 202 255 
-0.0461202 -0.106353 -2.5912 -0.491882 0.083621 0.866637 200 195 184 255 
-0.0356325 -0.105625 -2.58296 -0.206892 0.553627 0.806655 46 49 49 255 
-0.0356417 -0.105563 -2.58378 -0.719337 -0.433018 0.543185 38 42 41 255 
-0.0358842 -0.105819 -2.58574 -0.743392 -0.388208 0.544668 39 41 39 255 
-0.0253596 -0.104907 -2.57647 -0.390593 0.055047 0.918916 39 42 38 255 
-0.0555619 -0.107762 -2.60021 0.0010519 -0.811302 0.584626 31 31 29 255 
-0.02081 -0.104706 -2.57111 -0.326637 0.65542 0.68098 34 37 36 255 
-0.0525755 -0.107652 -2.59599 -0.519827 -0.468068 0.714627 18 20 19 255 
-0.0525695 -0.10766 -2.59589 -0.533494 -0.450136 0.716074 18 20 19 255 
-0.0254821 -0.105426 -2.57689 -0.795355 0.468025 0.385178 36 38 35 255 
-0.0250728 -0.105489 -2.57706 -0.651612 0.650386 0.390384 41 43 40 255 
-0.0601172 -0.108479 -2.60177 -0.511301 -0.475208 0.716065 40 38 39 255 
-0.0601172 -0.108479 -2.60177 -0.513291 -0.474711 0.71497 40 38 39 255 
-0.0596801 -0.108567 -2.60147 -0.127061 -0.767409 0.628442 38 37 40 255 
-0.0250601 -0.10559 -2.5767 -0.623936 0.207203 0.753506 37 39 37 255 
-0.0210027 -0.105253 -2.57284 -0.462592 0.779051 0.423189 167 166 162 255 
-0.024932 -0.105588 -2.57121 -0.0267895 -0.825723 0.563439 56 58 54 255 
-0.0602619 -0.109222 -2.60176 0.407438 0.386579 0.827376 21 23 22 255 
-0.0376796 -0.107647 -2.58619 -0.499949 -0.0725932 0.863007 39 41 39 255 
-0.033236 -0.107092 -2.58001 -0.498793 -0.430748 0.752105 212 209 204 255 
-0.0485472 -0.108957 -2.59541 -0.754712 -0.0718099 0.652115 49 52 47 255 
-0.0380304 -0.108134 -2.58765 -0.53839 -0.608321 0.583165 43 47 43 255 
-0.0377883 -0.108117 -2.58736 -0.538591 -0.608485 0.582809 46 49 46 255 
-0.0187507 -0.105884 -2.56911 0.0380123 -0.2311 0.972187 56 56 51 255 
-0.0185482 -0.105866 -2.56898 -0.217405 -0.286304 0.933148 57 58 54 255 
-0.0500156 -0.109531 -2.59657 -0.691491 -0.273921 0.668437 34 38 38 255 
-0.0484286 -0.109249 -2.59525 -0.509931 0.0348572 0.859509 31 35 32 255 
-0.0460018 -0.108786 -2.58991 -0.178165 -0.777965 0.602518 199 195 184 255 
-0.0331745 -0.107408 -2.57999 -0.727316 -0.298783 0.617852 213 210 205 255 
-0.0191541 -0.106286 -2.56943 -0.254801 -0.244868 0.935476 186 185 179 255 
-0.0376207 -0.108817 -2.58607 -0.292243 0.817592 0.496122 40 43 40 255 
-0.0314275 -0.107917 -2.57868 -0.726264 0.44002 0.528132 197 194 188 255 
-0.0201761 -0.10663 -2.5698 0.231622 0.297289 0.926267 219 216 210 255 
-0.0337623 -0.108323 -2.58009 -0.775763 0.0109506 0.630929 196 193 187 255 
-0.0265223 -0.107468 -2.57428 -0.321411 -0.383169 0.865954 45 42 37 255 
-0.0587937 -0.111547 -2.60102 -0.296209 -0.671178 0.679544 176 160 152 255 
-0.023741 -0.107532 -2.5725 -0.769248 -0.21367 0.602165 218 212 204 255 
-0.0507364 -0.111162 -2.5967 -0.266028 0.455266 0.849684 22 25 26 255 
-0.0404185 -0.109422 -2.58266 -0.284576 -0.592956 0.753273 57 59 57 255 
-0.0395827 -0.109229 -2.58026 -0.0363068 -0.799061 0.600152 55 58 55 255 
-0.0505896 -0.111402 -2.59661 -0.0437407 0.398735 0.916023 21 25 26 255 
-0.0401648 -0.109825 -2.5835 -0.26719 -0.60177 0.752651 144 143 139 255 
-0.0331725 -0.109873 -2.57932 -0.341523 0.150746 0.927706 217 206 192 255 
-0.0197173 -0.108059 -2.56872 -0.792058 -0.406051 0.455815 197 194 190 255 
-0.0333251 -0.110251 -2.57934 -0.264096 0.117401 0.957325 216 205 190 255 
-0.0486577 -0.112244 -2.58956 -0.0833071 -0.770168 0.632377 179 174 166 255 
-0.0334313 -0.110471 -2.57951 -0.15606 -0.175142 0.972096 217 209 198 255 
-0.0456345 -0.11216 -2.58846 -0.149307 -0.752337 0.641636 56 51 45 255 
-0.0447154 -0.112383 -2.58827 -0.328033 -0.201382 0.922952 48 47 44 255 
-0.0416926 -0.11188 -2.5865 -0.550963 -0.226191 0.803291 85 83 76 255 
-0.0316469 -0.110282 -2.57702 -0.72633 -0.424815 0.54035 206 202 196 255 
-0.0293255 -0.110047 -2.57626 0.272601 0.673074 0.687503 221 216 210 255 
-0.0396232 -0.110875 -2.57777 -0.343178 0.187363 0.920393 213 209 198 255 
-0.0371652 -0.11162 -2.58221 -0.673519 -0.323598 0.664572 218 214 206 255 
-0.0285019 -0.110262 -2.57512 -0.665038 0.500778 0.554027 223 218 212 255 
-0.0277047 -0.110294 -2.57482 -0.838331 0.313848 0.445758 222 217 211 255 
-0.0383974 -0.111883 -2.58339 -0.507322 -0.0342046 0.861077 216 212 202 255 
-0.0325185 -0.110935 -2.57802 -0.787641 -0.307757 0.533767 208 201 189 255 
-0.0308303 -0.110778 -2.57651 -0.732813 -0.424093 0.5321 131 128 122 255 
-0.0388001 -0.11228 -2.58368 -0.629471 0.622922 0.464472 220 215 207 255 
-0.0307547 -0.111028 -2.57658 -0.75689 0.512701 0.405285 123 118 113 255 
-0.0267052 -0.110463 -2.57387 -0.693208 0.264709 0.670366 222 217 211 255 
-0.023544 -0.110126 -2.57103 -0.339674 0.131044 0.931369 222 217 211 255 
-0.042464 -0.113093 -2.58645 -0.322885 0.138086 0.936311 219 216 209 255 
-0.0422426 -0.113104 -2.58641 -0.38502 0.123356 0.914627 221 218 211 255 
-0.0380606 -0.112517 -2.58282 -0.683772 0.26821 0.678616 219 214 207 255 
-0.0370155 -0.112386 -2.58192 -0.548226 -0.0570037 0.834385 218 213 207 255 
-0.0313526 -0.111294 -2.57725 -0.68088 -0.480775 0.552501 119 115 110 255 
-0.0233826 -0.110333 -2.57112 -0.657744 -0.147083 0.738742 223 217 212 255 
-0.0416963 -0.113366 -2.58578 -0.693074 0.423758 0.583162 217 214 203 255 
-0.0416866 -0.113352 -2.58569 -0.667653 0.544017 0.508217 217 214 203 255 
-0.0416369 -0.113243 -2.58566 -0.765179 0.267774 0.585489 219 215 205 255 
-0.0269448 -0.111109 -2.5738 -0.773062 0.00749419 0.634287 220 217 212 255 
-0.0371726 -0.112718 -2.58203 -0.416328 0.0140457 0.909106 220 215 209 255 
-0.0369666 -0.112701 -2.58179 -0.458221 0.0579966 0.886944 221 216 209 255 
-0.0293156 -0.11156 -2.5757 -0.837693 0.35309 0.41665 140 136 132 255 
-0.050785 -0.115393 -2.59274 -0.505781 -0.313901 0.803524 211 207 196 255 
-0.0509426 -0.115265 -2.59233 -0.580166 -0.380653 0.720077 209 205 194 255 
-0.0254153 -0.11139 -2.57254 -0.816792 0.440933 0.372062 224 220 215 255 
-0.0434182 -0.114451 -2.58694 -0.262273 0.555361 0.789169 217 214 206 255 
-0.0355768 -0.113135 -2.58011 -0.598747 -0.495814 0.629023 223 219 212 255 
-0.0251645 -0.111513 -2.57216 -0.716708 -0.310003 0.624682 221 216 211 255 
-0.0536869 -0.116308 -2.59495 -0.618899 0.470064 0.629289 207 204 193 255 
-0.0250401 -0.111785 -2.57213 -0.330935 0.146043 0.932284 220 216 211 255 
-0.0251921 -0.111802 -2.57235 -0.835059 -0.0989678 0.541185 224 220 215 255 
-0.0224707 -0.111281 -2.57008 -0.778187 -0.373456 0.504931 164 159 155 255 
-0.0381446 -0.114325 -2.58226 -0.680729 0.0658207 0.729572 224 220 214 255 
-0.0256734 -0.11233 -2.5723 -0.919701 0.0415236 0.390417 219 213 206 255 
-0.0209194 -0.111438 -2.56812 -0.556224 0.157965 0.815881 163 134 119 255 
-0.0375415 -0.114885 -2.58171 -0.77845 -0.207462 0.592431 220 217 211 255 
-0.0290546 -0.113243 -2.57421 -0.610995 0.121814 0.782206 101 103 104 255 
-0.0232809 -0.11222 -2.56962 -0.419311 0.559649 0.714823 209 204 198 255 
-0.0210186 -0.111818 -2.5679 -0.872503 0.190589 0.449905 160 131 120 255 
-0.021073 -0.111921 -2.56816 -0.894391 0.17117 0.413239 189 171 162 255 
-0.0224396 -0.112254 -2.56909 -0.83626 0.334914 0.434168 160 155 150 255 
-0.0214243 -0.112185 -2.56905 -0.435025 -0.528329 0.729124 164 156 148 255 
-0.021137 -0.112029 -2.5684 -0.824531 0.28644 0.487956 210 203 193 255 
-0.0210216 -0.111945 -2.56764 -0.863743 0.194546 0.464865 153 125 112 255 
-0.0457648 -0.116438 -2.58705 -0.700367 -0.0691715 0.710424 187 171 159 255 
-0.0277948 -0.113269 -2.57281 -0.86436 0.0178586 0.502557 77 62 54 255 
-0.0204788 -0.112038 -2.56673 -0.548668 0.350522 0.759011 107 108 106 255 
-0.0374339 -0.115457 -2.58165 -0.523808 -0.270233 0.807836 214 210 202 255 
-0.0285507 -0.11369 -2.57358 -0.796109 0.179602 0.577887 91 94 93 255 
-0.0214137 -0.112723 -2.56854 -0.920734 0.04925 0.38707 207 200 191 255 
-0.0350434 -0.115112 -2.57849 -0.536018 -0.187815 0.82305 91 93 92 255 
-0.0283111 -0.114037 -2.57318 -0.74896 0.411308 0.519505 102 104 103 255 
-0.0283769 -0.113998 -2.57334 -0.808524 0.266698 0.524558 96 99 98 255 
-0.0324418 -0.114937 -2.57645 -0.836199 0.266395 0.47938 85 86 86 255 
-0.0321839 -0.114799 -2.57614 -0.769935 0.46745 0.434385 97 98 97 255 
-0.0287421 -0.114203 -2.57356 -0.230401 -0.11088 0.966758 93 95 94 255 
-0.023104 -0.11291 -2.56786 -0.805247 0.510098 0.302288 184 177 176 255 
-0.0228937 -0.113025 -2.56777 -0.573676 0.604398 0.55281 144 139 136 255 
-0.0324055 -0.115203 -2.5762 -0.607061 0.5779 0.545443 85 85 85 255 
-0.0322377 -0.115145 -2.576 -0.747491 0.428698 0.507421 87 88 87 255 
-0.0318428 -0.115421 -2.57586 -0.759835 0.437628 0.480762 79 81 80 255 
-0.029457 -0.114904 -2.574 -0.775945 -0.196528 0.599405 80 83 83 255 
-0.0568461 -0.120689 -2.5963 0.0608518 0.355323 0.932761 180 179 168 255 
-0.0325229 -0.115727 -2.57642 -0.85066 -0.0782713 0.519858 84 85 84 255 
-0.0309948 -0.115381 -2.57536 -0.806084 0.374371 0.458339 85 88 87 255 
-0.0296402 -0.115216 -2.57417 -0.733204 0.0806804 0.675205 83 85 85 255 
