ply
format ascii 1.0
comment VCGLIB generated
element vertex 652
property float x
property float y
property float z
property float nx
property float ny
property float nz
property uchar red
property uchar green
property uchar blue
property uchar alpha
element face 0
property list uchar int vertex_indices
end_header
0.0530731 -0.0551482 -2.59702 -0.766547 -0.36329 0.529552 115 127 137 255 
0.0612947 -0.054957 -2.60204 -0.584535 0.0926686 0.806059 51 58 40 255 
0.0624737 -0.0553385 -2.60082 -0.530051 0.0564518 0.846084 40 45 32 255 
0.0634403 -0.0553079 -2.6006 -0.797563 -0.370241 0.47625 52 60 53 255 
0.0735656 -0.0530529 -2.62109 -0.28238 -0.541318 0.791982 130 142 153 255 
0.075041 -0.0529084 -2.62207 -0.169145 -0.924562 0.341431 54 61 61 255 
0.0514655 -0.0541563 -2.60368 -0.670432 -0.330785 0.664155 71 84 76 255 
0.0514621 -0.0542448 -2.60357 -0.689857 -0.346587 0.635591 65 78 73 255 
0.0523447 -0.0546644 -2.60132 -0.681915 -0.481411 0.550668 109 123 132 255 
0.061172 -0.0557168 -2.60207 -0.528701 0.0922719 0.843778 41 48 38 255 
0.0620862 -0.0557971 -2.60145 -0.597605 -0.17779 0.781831 40 46 33 255 
0.062634 -0.0559449 -2.60163 -0.69712 -0.313388 0.644835 43 50 42 255 
0.0741713 -0.0533528 -2.6217 -0.289731 -0.505131 0.812957 76 86 87 255 
0.0748335 -0.0532482 -2.62193 -0.455547 -0.420398 0.784692 82 88 99 255 
0.0754973 -0.0534897 -2.62276 -0.162238 -0.641729 0.749575 52 60 59 255 
0.0511807 -0.0546351 -2.60336 -0.457527 -0.772845 0.43975 69 83 100 255 
0.0513516 -0.0546836 -2.60363 -0.584894 -0.656653 0.476137 78 93 106 255 
0.0517124 -0.0547417 -2.60354 -0.734345 -0.439768 0.517051 143 160 173 255 
0.062229 -0.0564545 -2.6018 -0.592552 -0.13257 0.794549 46 56 48 255 
0.0629412 -0.0563029 -2.6005 -0.706633 -0.408742 0.577581 47 56 52 255 
0.0628645 -0.0566785 -2.60103 -0.235598 -0.573373 0.784689 54 72 89 255 
0.0652444 -0.0575142 -2.59755 0.770417 0.334003 0.543046 67 79 77 255 
0.0745034 -0.0537644 -2.62372 -0.836907 -0.0684181 0.543052 102 110 103 255 
0.0509172 -0.0551514 -2.60417 -0.789626 -0.244849 0.562619 152 171 196 255 
0.051517 -0.0554885 -2.60403 -0.799338 -0.152616 0.581177 140 157 167 255 
0.0610443 -0.0555259 -2.60734 -0.601622 0.217731 0.768534 38 50 47 255 
0.0633265 -0.0570647 -2.60058 -0.689782 -0.346172 0.635897 54 73 105 255 
0.063898 -0.0572094 -2.60045 -0.56027 -0.217942 0.799124 77 93 112 255 
0.064212 -0.0578566 -2.59834 -0.294847 -0.832791 0.468536 80 96 132 255 
0.0644708 -0.0573079 -2.6004 -0.000881851 0.546712 0.83732 43 52 64 255 
0.065324 -0.0578369 -2.59775 -0.848605 -0.0615721 0.525432 86 102 104 255 
0.0751037 -0.0542887 -2.62315 -0.858341 -0.176667 0.481705 58 62 51 255 
0.0619709 -0.0570476 -2.60245 -0.685397 -0.375992 0.623587 39 47 53 255 
0.0626161 -0.0573026 -2.6015 -0.696384 -0.325542 0.639587 117 138 136 255 
0.0632341 -0.0574663 -2.60107 -0.700641 -0.372212 0.608736 101 125 158 255 
0.0635602 -0.0577828 -2.6004 -0.58515 -0.192114 0.78784 100 123 143 255 
0.0647819 -0.0580465 -2.59796 -0.595445 -0.193637 0.779711 40 49 50 255 
0.0653453 -0.0584602 -2.59748 -0.17833 -0.581074 0.794072 120 139 146 255 
0.0746409 -0.0549294 -2.62447 -0.87596 -0.0821319 0.475341 60 65 46 255 
0.0624167 -0.0578834 -2.60214 -0.658183 -0.400171 0.637698 42 53 50 255 
0.0630537 -0.0580983 -2.60175 -0.719233 -0.385915 0.577731 92 106 105 255 
0.0640926 -0.0580721 -2.6003 -0.621808 -0.239748 0.745571 72 85 103 255 
0.0647992 -0.0586409 -2.59786 -0.84145 -0.184092 0.508008 58 66 68 255 
0.0658457 -0.0585415 -2.599 0.459472 -0.811647 0.360714 106 128 159 255 
0.0744385 -0.0572538 -2.61551 -0.691877 -0.561499 0.4539 52 62 49 255 
0.0756079 -0.0570724 -2.61635 -0.878605 -0.107996 0.465178 52 58 40 255 
0.0752257 -0.0568365 -2.61673 -0.873568 -0.140743 0.465909 46 54 37 255 
0.0373234 -0.0585249 -2.585 0.593572 -0.428689 0.681101 93 99 93 255 
0.0601546 -0.0577656 -2.60542 -0.773979 0.208124 0.598031 45 52 61 255 
0.0604889 -0.057733 -2.60548 -0.811816 0.0952349 0.576095 52 57 62 255 
0.0636037 -0.0584506 -2.60129 -0.689521 -0.0693619 0.720937 72 86 92 255 
0.0744478 -0.0576966 -2.61604 -0.686319 -0.609483 0.396858 51 60 50 255 
0.0748963 -0.0576799 -2.61627 -0.695964 -0.562509 0.446339 52 60 52 255 
0.0750079 -0.0574044 -2.61619 -0.861872 -0.239608 0.44695 48 54 43 255 
0.075419 -0.0574075 -2.61727 -0.838923 -0.228712 0.493861 54 62 49 255 
0.0757184 -0.0578803 -2.61565 -0.810631 -0.359852 0.461935 56 67 57 255 
0.075679 -0.0575779 -2.61722 -0.872233 -0.153049 0.464528 58 69 58 255 
0.0761404 -0.05791 -2.61624 -0.846724 -0.305432 0.435626 50 59 50 255 
0.0757897 -0.0575999 -2.61725 -0.853837 -0.198576 0.481176 49 57 45 255 
0.0764224 -0.0580259 -2.61495 -0.690749 -0.588293 0.420449 46 53 47 255 
0.0767651 -0.0584863 -2.61207 -0.583192 -0.645738 0.492859 70 80 79 255 
0.0372847 -0.058979 -2.58525 0.506781 0.112833 0.854659 97 102 97 255 
0.0488007 -0.0560671 -2.61163 -0.751658 0.172324 0.636644 140 166 192 255 
0.0594282 -0.0583852 -2.60526 -0.793855 0.158413 0.587112 94 113 129 255 
0.0626708 -0.0586549 -2.60291 -0.819916 -0.0984282 0.563959 39 45 43 255 
0.068126 -0.0582531 -2.60923 -0.672329 -0.0849015 0.735368 40 42 39 255 
0.0683856 -0.0584561 -2.60828 -0.850961 -0.116137 0.512228 47 49 44 255 
0.0684632 -0.0589912 -2.60689 -0.858424 -0.114036 0.500104 44 46 44 255 
0.0689815 -0.0592795 -2.60437 -0.851618 -0.204778 0.482507 47 52 43 255 
0.0704804 -0.0598775 -2.60077 -0.864005 -0.111373 0.49101 46 53 43 255 
0.0744881 -0.0569503 -2.62409 -0.838114 -0.2935 0.459807 63 74 65 255 
0.0742968 -0.0567681 -2.62401 -0.820709 -0.138607 0.554279 52 62 48 255 
0.0751746 -0.058114 -2.61579 -0.731004 -0.256421 0.632362 72 82 82 255 
0.0756081 -0.058299 -2.61618 -0.677186 -0.582519 0.449544 61 71 75 255 
0.0760234 -0.0583607 -2.61658 -0.798255 -0.434882 0.416733 70 82 88 255 
0.0764521 -0.0584808 -2.6154 -0.636241 -0.582487 0.505871 61 75 78 255 
0.0599196 -0.0590334 -2.60443 -0.793447 0.120135 0.596666 130 152 174 255 
0.0622108 -0.0592938 -2.603 -0.788797 -0.0634396 0.611371 48 55 47 255 
0.0676364 -0.0584968 -2.61118 -0.807297 -0.0787841 0.584864 35 39 32 255 
0.0677009 -0.0588465 -2.61142 -0.85481 -0.0391249 0.517464 37 42 38 255 
0.068254 -0.0593524 -2.60733 -0.790855 -0.210721 0.574583 46 51 54 255 
0.0686199 -0.0596164 -2.60655 -0.753491 -0.217538 0.620426 41 47 53 255 
0.0698656 -0.0598984 -2.60635 -0.783964 -0.430149 0.44763 54 64 65 255 
0.0753902 -0.0585815 -2.61615 -0.846664 -0.303384 0.43717 80 92 100 255 
0.0757232 -0.0585 -2.6171 -0.699253 -0.594368 0.397205 84 97 108 255 
0.0764402 -0.0587478 -2.61583 -0.701587 -0.561613 0.438597 71 85 98 255 
0.0485438 -0.0570963 -2.61194 -0.717559 0.144152 0.681417 212 234 249 255 
0.0617197 -0.0598959 -2.60399 -0.838066 -0.0792644 0.539781 37 50 88 255 
0.0670821 -0.0589847 -2.61183 -0.764669 -0.00902613 0.64436 49 54 59 255 
0.0674292 -0.0592324 -2.61162 -0.788217 -0.0669191 0.611749 41 47 48 255 
0.0677392 -0.0595488 -2.6111 -0.854538 -0.0431431 0.517594 63 74 74 255 
0.068008 -0.0591294 -2.61114 -0.857331 -0.0415665 0.513085 53 60 63 255 
0.0683915 -0.0597456 -2.60854 -0.848372 -0.211671 0.485243 68 79 91 255 
0.068389 -0.0597159 -2.60874 -0.848748 -0.210778 0.484973 68 79 91 255 
0.0692317 -0.0600144 -2.607 -0.847572 -0.210263 0.487249 55 66 72 255 
0.0720184 -0.0600898 -2.60881 0.46905 -0.379669 0.797398 49 55 43 255 
0.0479519 -0.05779 -2.61164 -0.767684 0.0967806 0.633478 233 246 254 255 
0.067147 -0.0596933 -2.61118 -0.689851 -0.083402 0.719131 46 49 51 255 
0.0674679 -0.0599317 -2.6113 -0.760562 -0.0620139 0.646296 59 67 70 255 
0.068047 -0.0598444 -2.61073 -0.822336 -0.0434924 0.567337 105 122 139 255 
0.0709777 -0.0603816 -2.60942 -0.853535 0.0782938 0.515119 84 93 96 255 
0.0708282 -0.0606077 -2.60791 0.381031 -0.527004 0.759659 92 105 111 255 
0.0716009 -0.0606953 -2.6084 0.366278 -0.455976 0.811127 65 72 67 255 
0.0755786 -0.0591142 -2.6226 -0.872216 -0.170023 0.458619 78 87 89 255 
0.07518 -0.0585874 -2.62459 -0.752823 0.088193 0.652288 118 129 125 255 
0.0756912 -0.0592285 -2.6231 -0.663326 0.0777137 0.744285 63 70 67 255 
0.0751931 -0.0587119 -2.62376 -0.611717 0.122496 0.781535 119 130 126 255 
0.0758643 -0.0594848 -2.618 -0.866979 -0.218478 0.4479 104 117 122 255 
0.0666849 -0.0605616 -2.61106 -0.611491 0.218222 0.760565 70 82 102 255 
0.0671649 -0.0603242 -2.61125 -0.589249 0.189984 0.785297 48 57 58 255 
0.0677719 -0.0601994 -2.61112 -0.755617 -0.0582839 0.652415 122 139 154 255 
0.0681313 -0.0604534 -2.61086 0.424055 0.679889 0.598271 141 172 211 255 
0.0698668 -0.061151 -2.60761 -0.852909 -0.14638 0.501118 133 156 187 255 
0.070209 -0.0611428 -2.60941 -0.755847 0.0152571 0.654571 84 99 106 255 
0.0762299 -0.0593943 -2.62371 -0.879003 -0.00740167 0.476759 74 80 75 255 
0.0762588 -0.0593868 -2.62348 -0.878682 -0.00630516 0.477367 74 81 77 255 
0.0766304 -0.0610152 -2.61273 -0.61523 -0.189859 0.765144 72 81 89 255 
0.0678197 -0.0608127 -2.61102 -0.508184 -0.0841233 0.85713 162 192 205 255 
0.0705583 -0.0616156 -2.60747 -0.735635 -0.0329346 0.676577 67 78 83 255 
0.0751807 -0.059394 -2.62612 -0.776758 0.0290665 0.629128 55 62 61 255 
0.0755855 -0.0601111 -2.62291 -0.69984 0.0843331 0.709304 47 53 48 255 
0.0762445 -0.0614445 -2.61378 -0.625285 -0.0925423 0.77489 66 71 66 255 
0.0767922 -0.061839 -2.61257 -0.697899 -0.145441 0.701273 51 56 51 255 
0.0691442 -0.061774 -2.61163 -0.856271 -0.00319439 0.516517 90 109 119 255 
0.069936 -0.0622945 -2.6086 -0.859254 -0.00293221 0.51154 50 64 67 255 
0.0751565 -0.0605227 -2.62625 -0.791499 0.0631056 0.607904 83 98 121 255 
0.0762352 -0.0608113 -2.62244 -0.874033 -0.0799502 0.479243 51 55 46 255 
0.0765602 -0.0623905 -2.6119 -0.404386 0.236607 0.883453 41 44 36 255 
0.0681253 -0.0620498 -2.61273 -0.735538 -0.246278 0.631135 106 134 170 255 
0.0687509 -0.0622275 -2.6129 -0.698122 -0.187316 0.691041 82 98 117 255 
0.0688224 -0.061979 -2.61282 -0.817779 -0.029419 0.57478 78 95 114 255 
0.0696763 -0.0622774 -2.61144 -0.86071 -0.00526641 0.509068 50 64 75 255 
0.0696991 -0.0622414 -2.61184 -0.835885 -0.0584503 0.545784 53 65 72 255 
0.0699632 -0.0624799 -2.61188 -0.85571 -0.0506904 0.514967 53 63 67 255 
0.0699632 -0.0624813 -2.61187 -0.855286 -0.0509657 0.515644 52 61 67 255 
0.0705115 -0.0626925 -2.6092 -0.855589 -0.00113409 0.517654 43 52 50 255 
0.0757015 -0.0610638 -2.62577 -0.809348 0.0435491 0.585713 42 47 55 255 
0.0693546 -0.0623632 -2.6135 -0.858993 -0.0177179 0.511681 65 78 86 255 
0.0702682 -0.0626183 -2.6127 -0.834551 -0.0692281 0.546564 45 54 56 255 
0.075108 -0.0616359 -2.62608 -0.782681 0.0165846 0.622202 69 87 107 255 
0.0776271 -0.0634072 -2.61337 -0.738213 0.0139438 0.674423 53 60 59 255 
0.0862336 -0.0628296 -2.62435 0.480878 -0.153558 0.863236 38 44 36 255 
0.0678134 -0.0627215 -2.61415 -0.834663 -0.262536 0.484161 118 143 166 255 
0.0684784 -0.0630816 -2.61377 -0.717506 -0.53547 0.445485 59 76 86 255 
0.078127 -0.063857 -2.61278 -0.552943 -0.0343002 0.832513 143 157 164 255 
0.0776889 -0.0640556 -2.61527 -0.694588 0.04182 0.718192 50 63 49 255 
0.0791219 -0.0655316 -2.60761 0.0018426 -0.880678 0.473712 80 96 114 255 
0.0774913 -0.0646538 -2.61875 -0.754438 0.0561669 0.653964 91 109 124 255 
0.0776611 -0.0648275 -2.61581 -0.714121 0.0377589 0.699003 60 68 70 255 
0.0476045 -0.0656768 -2.59037 0.352753 0.647843 0.675177 82 95 105 255 
0.0764975 -0.0646994 -2.62156 -0.881809 -0.0628866 0.467396 152 170 193 255 
0.0776121 -0.0656937 -2.61572 -0.697011 0.0141622 0.716921 92 100 122 255 
0.0807039 -0.0668783 -2.60478 0.743014 -0.438945 0.505231 32 39 34 255 
0.0477659 -0.0663905 -2.59017 -0.407082 0.445756 0.797237 60 73 83 255 
0.0754561 -0.0645341 -2.62712 -0.750752 0.0812611 0.655567 84 98 96 255 
0.0770496 -0.0651414 -2.62505 -0.708663 -0.109262 0.697035 125 136 135 255 
0.0470083 -0.0663861 -2.59066 -0.553774 0.409677 0.724913 72 84 79 255 
0.0748262 -0.0650474 -2.62699 -0.770479 0.0384458 0.636305 58 64 68 255 
0.0753274 -0.0655719 -2.62626 -0.767935 0.0364084 0.639492 104 120 122 255 
0.076532 -0.0655396 -2.62616 -0.809785 -0.0318777 0.58586 104 115 127 255 
0.078777 -0.0673366 -2.61152 -0.861072 0.167507 0.480099 70 75 76 255 
0.0472137 -0.0670679 -2.58996 -0.452563 0.489744 0.74521 83 91 89 255 
0.0481314 -0.0671053 -2.58971 0.0634242 0.650067 0.757225 53 60 65 255 
0.0491821 -0.0674697 -2.58992 -0.651959 0.27121 0.708093 77 90 81 255 
0.069706 -0.0663784 -2.61706 -0.847047 -0.0522698 0.528942 75 84 82 255 
0.075865 -0.0659775 -2.62693 -0.826499 0.0814805 0.557011 174 194 205 255 
0.077079 -0.06599 -2.6255 -0.712064 -0.0105526 0.702036 78 86 84 255 
0.0776153 -0.0664659 -2.62458 -0.812048 -0.133912 0.56802 62 68 59 255 
0.0776553 -0.0664317 -2.62426 -0.801062 -0.122076 0.586001 73 80 69 255 
0.0851474 -0.0665815 -2.62768 0.322536 -0.749422 0.57822 45 48 42 255 
0.0462824 -0.0677443 -2.58894 -0.653575 0.365275 0.662883 59 65 47 255 
0.0468283 -0.0676761 -2.58961 -0.356441 0.389334 0.849334 79 86 82 255 
0.0474557 -0.0676474 -2.58958 -0.297379 0.438405 0.848155 61 72 61 255 
0.048113 -0.067632 -2.58948 -0.18534 0.535844 0.823724 48 56 43 255 
0.0486503 -0.0678368 -2.5893 -0.666172 0.266867 0.696417 44 46 35 255 
0.0684682 -0.0670587 -2.61706 -0.830559 -0.218925 0.512097 67 75 86 255 
0.0686551 -0.0665531 -2.61767 -0.86002 -0.0244192 0.509676 48 56 59 255 
0.0697737 -0.0671712 -2.61549 -0.693932 0.0514491 0.7182 88 98 103 255 
0.0752886 -0.0658926 -2.62984 -0.628056 -0.300767 0.717694 86 99 103 255 
0.0753779 -0.0663308 -2.62899 -0.874298 0.0215791 0.48491 97 111 113 255 
0.0759317 -0.0666367 -2.62737 -0.825655 -0.346784 0.445012 200 211 216 255 
0.0765451 -0.0664352 -2.62616 -0.704953 0.0102167 0.70918 104 112 129 255 
0.0766553 -0.066812 -2.62678 -0.540472 0.0899323 0.836542 130 136 149 255 
0.0773528 -0.0668216 -2.62658 -0.846743 0.112164 0.520043 93 100 104 255 
0.078301 -0.0667458 -2.62474 -0.886264 -0.0329161 0.462009 49 55 38 255 
0.0462877 -0.0684538 -2.5887 -0.501704 0.510811 0.698115 40 45 30 255 
0.0470793 -0.068261 -2.58917 0.0381746 0.297251 0.954036 48 53 40 255 
0.0476293 -0.0682396 -2.58939 0.161707 0.134107 0.977684 49 56 44 255 
0.0481375 -0.0682181 -2.58967 0.310989 -0.0852416 0.946583 42 47 38 255 
0.0489676 -0.0684609 -2.58896 -0.709344 0.149446 0.688837 40 45 41 255 
0.068639 -0.067723 -2.61677 -0.854895 -0.148228 0.497175 140 151 156 255 
0.0686121 -0.0677008 -2.61686 -0.860038 -0.0783701 0.504175 136 147 152 255 
0.0688576 -0.0672621 -2.6171 -0.859133 -0.0961026 0.502648 85 95 106 255 
0.0688671 -0.0672689 -2.61707 -0.85947 -0.0965298 0.50199 87 96 107 255 
0.0702793 -0.0675531 -2.6159 -0.770154 -0.0870367 0.631892 92 101 103 255 
0.0712721 -0.0677713 -2.61316 -0.84113 0.149998 0.519616 103 111 113 255 
0.0756649 -0.0670421 -2.62782 -0.878301 -0.0189326 0.477733 176 187 179 255 
0.076113 -0.0672389 -2.62745 -0.705684 -0.207285 0.677527 168 177 181 255 
0.0769614 -0.0671867 -2.62663 -0.793852 0.13798 0.592251 109 118 127 255 
0.0772477 -0.0675692 -2.62633 -0.802766 0.109627 0.58613 60 67 63 255 
0.0772669 -0.0675674 -2.62643 -0.802451 0.104585 0.587481 59 66 62 255 
0.0778428 -0.0673749 -2.62507 -0.692245 0.0289664 0.721081 40 44 37 255 
0.077696 -0.0671589 -2.62698 -0.795824 0.0558739 0.602944 46 51 48 255 
0.0777091 -0.0671662 -2.62697 -0.814252 0.058614 0.577545 46 51 47 255 
0.0777091 -0.0671662 -2.62697 -0.814252 0.058614 0.577545 46 51 47 255 
0.077696 -0.0671589 -2.62698 -0.795824 0.0558739 0.602944 46 51 48 255 
0.0789422 -0.0692901 -2.6075 -0.849531 0.146862 0.506685 84 94 85 255 
0.083678 -0.0676762 -2.6286 -0.889766 -0.163262 0.426219 86 88 86 255 
0.0841962 -0.0683647 -2.62117 -0.854234 0.060459 0.516362 47 52 45 255 
0.0849756 -0.0681591 -2.62153 -0.745656 0.201922 0.634999 52 55 54 255 
0.0904793 -0.0675415 -2.63624 -0.757223 0.151139 0.635429 27 32 22 255 
0.0442766 -0.0688464 -2.58883 -0.680977 0.302946 0.666703 67 66 54 255 
0.0448195 -0.0688061 -2.58898 -0.405558 0.268246 0.873823 57 58 47 255 
0.0454444 -0.0688015 -2.58873 -0.729158 0.177589 0.660902 61 63 59 255 
0.0689777 -0.0679829 -2.61648 -0.860724 -0.0706676 0.504143 185 197 211 255 
0.0693023 -0.0683675 -2.61518 -0.808738 -0.0359507 0.58707 155 165 188 255 
0.0697111 -0.0680722 -2.61513 -0.788663 -0.0186237 0.614543 92 102 120 255 
0.0696592 -0.0685817 -2.61401 -0.827816 -0.155695 0.538961 82 93 111 255 
0.0702585 -0.0686528 -2.61346 -0.841141 0.144685 0.521103 74 86 82 255 
0.0706209 -0.0683111 -2.61356 -0.839502 0.162883 0.518368 62 69 72 255 
0.0711477 -0.06852 -2.61264 -0.808769 0.112354 0.577295 62 68 72 255 
0.0721687 -0.0686349 -2.61152 -0.763586 0.223685 0.605724 163 172 172 255 
0.0758331 -0.0676859 -2.62745 -0.853891 -0.0821457 0.513928 153 162 154 255 
0.0753602 -0.0674451 -2.62808 -0.628981 -0.373627 0.681752 79 87 87 255 
0.0762327 -0.0678689 -2.62736 -0.751188 -0.256209 0.608337 158 166 161 255 
0.0765467 -0.0674703 -2.62713 -0.713371 -0.140214 0.686617 150 157 170 255 
0.0775959 -0.0678731 -2.62689 -0.786961 0.0721612 0.612769 44 49 40 255 
0.0773189 -0.0676915 -2.62665 -0.644719 0.0900609 0.759095 56 62 56 255 
0.0776136 -0.0678795 -2.62687 -0.786635 0.0705318 0.613376 47 53 41 255 
0.0775968 -0.0678711 -2.62691 -0.752746 0.0706087 0.654514 48 53 41 255 
0.0794203 -0.0697179 -2.60742 -0.780942 0.0507362 0.622539 126 134 128 255 
0.0846719 -0.0689854 -2.62085 -0.902206 -0.019783 0.430852 122 127 126 255 
0.0437839 -0.0692392 -2.588 -0.665071 0.329248 0.670281 58 54 43 255 
0.044549 -0.0694042 -2.58852 -0.348382 0.224438 0.910087 92 79 72 255 
0.0450403 -0.0694085 -2.5888 -0.61021 0.421343 0.670905 80 74 68 255 
0.0458494 -0.0694163 -2.58835 -0.662372 0.356114 0.659125 80 75 73 255 
0.0466465 -0.0692518 -2.58753 -0.739188 0.172784 0.650958 33 34 26 255 
0.0687533 -0.0683822 -2.61676 -0.853806 -0.149447 0.498678 185 196 204 255 
0.0691913 -0.0686167 -2.61549 -0.793041 -0.045028 0.607501 150 157 172 255 
0.0698964 -0.068933 -2.61401 -0.836912 0.164118 0.522154 90 103 119 255 
0.0695247 -0.0692202 -2.61442 -0.834523 0.158363 0.527725 149 163 170 255 
0.0705046 -0.0690489 -2.61288 -0.83013 0.159727 0.534202 150 161 167 255 
0.0755304 -0.068145 -2.6271 -0.877748 -0.0872289 0.471115 71 78 68 255 
0.0758747 -0.0684351 -2.62702 -0.871876 -0.0542558 0.486712 76 83 74 255 
0.0759932 -0.0683451 -2.62719 -0.88003 -0.0322863 0.473819 85 92 82 255 
0.0765237 -0.068339 -2.62774 -0.873407 -0.064515 0.482699 57 61 54 255 
0.077173 -0.0682185 -2.62691 -0.806899 -0.00579172 0.590661 48 53 49 255 
0.0788711 -0.070201 -2.60723 -0.728219 0.0902496 0.679377 52 60 44 255 
0.0789222 -0.0706065 -2.60663 -0.71448 0.330481 0.616685 40 45 32 255 
0.0796032 -0.0704189 -2.60626 -0.685518 0.38238 0.619556 74 79 67 255 
0.0843985 -0.0692672 -2.62548 -0.891952 0.0870173 0.443677 75 83 72 255 
0.0437023 -0.0696273 -2.58823 0.038834 -0.46961 0.882019 91 73 71 255 
0.0442773 -0.0699228 -2.58842 -0.232938 0.0877116 0.968528 125 97 95 255 
0.0448733 -0.0699382 -2.58812 0.0316679 0.133366 0.990561 108 90 88 255 
0.0454052 -0.0699306 -2.58822 0.0783559 0.116404 0.990106 73 62 54 255 
0.0459837 -0.0699548 -2.58802 0.191612 0.183945 0.964079 110 89 88 255 
0.0470164 -0.0698394 -2.58736 -0.753597 -0.00480445 0.657319 41 42 33 255 
0.0683515 -0.0690938 -2.61711 -0.798663 -0.133703 0.586738 158 170 188 255 
0.0687231 -0.0693494 -2.61673 -0.814533 -0.321084 0.483158 80 89 116 255 
0.069264 -0.0692445 -2.6152 -0.856416 -0.115005 0.503315 126 141 133 255 
0.0697639 -0.0696135 -2.61397 -0.83782 0.163358 0.520933 178 192 206 255 
0.0695933 -0.0695402 -2.61466 -0.851422 -0.100334 0.514795 184 200 206 255 
0.0698903 -0.0698779 -2.61408 -0.862445 -0.0362382 0.504852 211 224 238 255 
0.071244 -0.0704004 -2.60447 -0.817913 0.245932 0.52013 67 79 86 255 
0.075597 -0.0688831 -2.62691 -0.87762 -0.0903868 0.470759 54 60 56 255 
0.0762239 -0.0687093 -2.62725 -0.879979 -0.00645339 0.474968 52 56 48 255 
0.0759469 -0.0691578 -2.62702 -0.88008 -0.0250192 0.474166 49 53 48 255 
0.0762231 -0.0687924 -2.62747 -0.879992 -0.0232717 0.474418 52 57 49 255 
0.0787472 -0.0710597 -2.60679 -0.838542 0.13165 0.528693 44 46 38 255 
0.0791422 -0.0712443 -2.60617 -0.838876 0.233618 0.491639 35 38 28 255 
0.0833384 -0.0697534 -2.62867 -0.885935 0.0103682 0.463693 70 74 76 255 
0.0836511 -0.0694182 -2.62778 -0.889782 0.0769856 0.449845 45 48 44 255 
0.0899957 -0.0689522 -2.64071 -0.84186 0.0960771 0.531076 40 42 41 255 
0.0431755 -0.0701552 -2.58835 0.274372 -0.560519 0.78137 79 64 49 255 
0.043738 -0.070159 -2.58846 -0.109771 -0.643255 0.757743 127 79 67 255 
0.044295 -0.0700863 -2.58842 -0.270242 -0.0548331 0.96123 111 70 63 255 
0.044611 -0.0704106 -2.58801 -0.47913 0.581749 0.657269 109 73 64 255 
0.0451266 -0.0703942 -2.58819 -0.109061 0.0322666 0.993511 80 61 47 255 
0.0458007 -0.0704649 -2.58746 0.339076 -0.187619 0.921861 104 77 66 255 
0.0463682 -0.0702392 -2.58779 -0.562704 0.314658 0.764431 98 80 79 255 
0.068092 -0.0695086 -2.61702 -0.833072 -0.252491 0.492178 206 218 233 255 
0.0676656 -0.0696849 -2.61688 -0.107208 -0.897416 0.427961 232 241 249 255 
0.068453 -0.0696951 -2.61744 -0.818135 -0.306435 0.486573 135 147 166 255 
0.0689718 -0.069656 -2.61605 -0.854977 -0.14933 0.496705 92 105 111 255 
0.0750279 -0.0692429 -2.62892 -0.71883 -0.53786 0.440444 56 61 55 255 
0.0756702 -0.0696056 -2.62687 -0.87875 -0.0737081 0.471557 49 54 51 255 
0.0753849 -0.0693048 -2.62795 -0.790479 0.0530567 0.610187 46 50 52 255 
0.0831688 -0.0699003 -2.62751 -0.894678 0.0359625 0.445261 41 44 41 255 
0.0831093 -0.0697903 -2.62904 -0.896604 0.00269592 0.442825 68 74 71 255 
0.0904202 -0.0693166 -2.64113 -0.846288 0.0784809 0.526913 36 39 34 255 
0.090338 -0.0697435 -2.64081 -0.832639 0.138396 0.536245 51 53 49 255 
0.0915887 -0.0706987 -2.62606 -0.635466 0.0725866 0.768709 28 32 26 255 
0.0440318 -0.0706384 -2.58833 -0.350378 0.0316791 0.936072 127 81 71 255 
0.0458866 -0.0708434 -2.58844 0.273615 -0.416495 0.866987 103 91 76 255 
0.0463125 -0.0706786 -2.58936 -0.187142 0.767395 0.613256 55 48 37 255 
0.0686372 -0.0703021 -2.61701 -0.84493 -0.200446 0.495899 197 211 216 255 
0.0698984 -0.0705568 -2.61396 -0.856292 -0.0953042 0.507623 221 236 236 255 
0.0826669 -0.0705754 -2.62843 -0.895978 -0.0152387 0.443837 36 39 30 255 
0.0894753 -0.0701809 -2.64074 -0.894737 0.125127 0.428706 72 76 74 255 
0.0897969 -0.0706081 -2.64018 -0.849381 0.116073 0.514859 62 67 67 255 
0.0903034 -0.0701252 -2.64091 -0.820815 0.0595892 0.568077 54 57 55 255 
0.0903479 -0.0704797 -2.64034 -0.877451 0.0864641 0.471809 35 39 28 255 
0.0903353 -0.0701416 -2.64097 -0.872301 0.0696227 0.483988 54 57 55 255 
0.0897293 -0.0706735 -2.63932 -0.839564 0.163425 0.518097 39 43 37 255 
0.0441162 -0.0714715 -2.58845 -0.678234 -0.20595 0.705397 77 56 43 255 
0.0750883 -0.070525 -2.63061 -0.268878 -0.858103 0.437451 50 55 54 255 
0.075513 -0.0704503 -2.62919 -0.862524 -0.066207 0.501666 72 78 82 255 
0.0753989 -0.0704304 -2.62976 -0.850385 -0.237424 0.469549 38 42 44 255 
0.0900148 -0.0711171 -2.63873 -0.877912 0.102618 0.467697 45 48 36 255 
0.0898689 -0.0708989 -2.64017 -0.865228 0.112798 0.488525 51 55 42 255 
0.0899805 -0.0714202 -2.63838 -0.873824 0.0986895 0.476122 50 53 46 255 
0.0906705 -0.0715944 -2.63553 -0.900824 -0.0318671 0.433014 31 35 24 255 
0.0903853 -0.0719979 -2.62595 -0.90107 0.111363 0.419131 27 30 25 255 
0.0905634 -0.0719357 -2.62637 -0.914419 -0.0266585 0.403889 28 30 26 255 
0.0435757 -0.0714684 -2.58848 0.0117294 -0.0918097 0.995707 99 70 55 255 
0.072895 -0.0715521 -2.62673 -0.438241 0.713109 0.547193 205 213 220 255 
0.0736926 -0.0716315 -2.62499 -0.386342 0.741784 0.548176 148 158 173 255 
0.0745783 -0.0715566 -2.62583 -0.358502 0.755873 0.547843 42 50 44 255 
0.0745778 -0.0715582 -2.62581 -0.370059 0.749424 0.549017 42 50 43 255 
0.0755437 -0.0712153 -2.62821 -0.854889 -0.236867 0.461582 94 101 104 255 
0.0758749 -0.0714975 -2.62824 -0.870144 -0.157449 0.466969 88 96 100 255 
0.0766713 -0.0718131 -2.62589 -0.83571 0.0135788 0.549003 33 37 32 255 
0.0826118 -0.0720293 -2.62635 -0.895737 -0.0552902 0.441133 36 40 34 255 
0.0830061 -0.0722951 -2.6265 -0.893348 -0.114548 0.434521 35 38 34 255 
0.0834976 -0.0723571 -2.62415 -0.837673 -0.0181331 0.545871 53 57 48 255 
0.0893196 -0.0715455 -2.64115 -0.890591 0.0326345 0.453633 115 124 139 255 
0.0892948 -0.0713829 -2.63897 -0.894111 0.116992 0.432295 83 91 103 255 
0.0895463 -0.071507 -2.63874 -0.898022 0.100725 0.428266 59 64 77 255 
0.0895963 -0.0718244 -2.63848 -0.900914 0.0875796 0.425068 78 85 97 255 
0.0903648 -0.0717762 -2.63896 -0.875022 0.101197 0.473388 41 44 37 255 
0.0899465 -0.072515 -2.62799 -0.89498 0.147892 0.420879 36 42 29 255 
0.0907965 -0.0726832 -2.62515 -0.902682 0.10123 0.418231 26 30 22 255 
0.0824557 -0.0723651 -2.62801 -0.871979 -0.018335 0.489199 37 43 44 255 
0.0827457 -0.0727369 -2.62656 -0.876872 -0.145194 0.458273 54 57 65 255 
0.0896914 -0.0723061 -2.63886 -0.903562 0.0775573 0.421379 98 106 123 255 
0.0899305 -0.0727409 -2.63806 -0.791988 0.1964 0.578085 82 86 90 255 
0.089877 -0.0722342 -2.63812 -0.897559 0.0999031 0.429426 77 79 84 255 
0.0904806 -0.0724098 -2.63854 0.755493 0.267666 0.597984 43 44 38 255 
0.0899433 -0.0734508 -2.62354 -0.778012 0.211308 0.591647 40 43 44 255 
0.0903375 -0.0731181 -2.62451 -0.884431 0.10091 0.455631 33 36 32 255 
0.090637 -0.0734834 -2.62475 -0.854393 0.0801496 0.513408 37 40 33 255 
0.0825503 -0.0731155 -2.62761 -0.893483 -0.0646048 0.444426 110 116 136 255 
0.0826322 -0.0732576 -2.62742 -0.896407 -0.0131262 0.443037 126 132 157 255 
0.0903868 -0.0732313 -2.63184 -0.909291 0.0455426 0.413661 73 74 69 255 
0.089883 -0.0738715 -2.63299 -0.908455 -0.0519032 0.414749 98 105 94 255 
0.0904244 -0.0744491 -2.63142 -0.910259 -0.00840864 0.413953 185 187 173 255 
0.0897692 -0.0746868 -2.62338 -0.897852 0.125593 0.422005 168 169 169 255 
0.0897135 -0.0743814 -2.62379 -0.894456 0.141098 0.424312 143 146 148 255 
0.0893302 -0.0746241 -2.63292 -0.724257 -0.0301813 0.688869 64 66 63 255 
0.090193 -0.075211 -2.62367 -0.631934 0.239571 0.737065 130 138 144 255 
0.0908738 -0.075482 -2.62432 -0.681672 -0.331818 0.65209 66 65 62 255 
0.0893424 -0.0755282 -2.63267 -0.759076 -0.181044 0.625321 65 73 72 255 
0.0902934 -0.0760035 -2.6236 -0.675457 -0.0921104 0.731624 132 134 138 255 
0.0905285 -0.0761264 -2.62404 -0.67676 -0.366503 0.638492 114 114 117 255 
0.0897814 -0.0765073 -2.62352 -0.654794 -0.0923729 0.750142 174 178 170 255 
0.0392384 -0.0757061 -2.57932 0.54818 -0.615188 0.566606 87 87 84 255 
0.0503682 -0.0754825 -2.59183 0.191562 -0.783074 0.591691 91 90 83 255 
0.055007 -0.0758737 -2.60021 -0.0354838 0.249492 0.967727 67 72 57 255 
0.0551091 -0.0759606 -2.5991 0.315056 0.292644 0.902829 97 102 93 255 
0.0552717 -0.0756897 -2.59922 0.0316587 0.483361 0.874848 110 112 102 255 
0.089536 -0.0764721 -2.63238 -0.705072 -0.162564 0.690251 119 141 158 255 
0.0903738 -0.076848 -2.62345 -0.726925 -0.0846098 0.681485 94 95 90 255 
0.0387998 -0.0761176 -2.57928 0.602542 -0.505842 0.617306 132 131 126 255 
0.0414715 -0.0762573 -2.58308 0.248319 -0.834592 0.491725 106 108 107 255 
0.0434994 -0.0761716 -2.58442 0.206059 -0.0506716 0.977227 47 47 45 255 
0.0547549 -0.0763819 -2.59596 0.221284 -0.723701 0.653674 154 158 155 255 
0.0553246 -0.0760227 -2.59883 0.289755 0.513988 0.807378 106 110 102 255 
0.0554737 -0.0761533 -2.59849 -0.11276 0.120877 0.986242 153 160 151 255 
0.0577737 -0.0765846 -2.60064 0.0366113 0.0110577 0.999268 162 166 160 255 
0.0581005 -0.0766203 -2.60045 -0.0304075 -0.35097 0.935893 180 183 180 255 
0.0824487 -0.0771185 -2.62162 -0.0813743 -0.883048 0.462174 43 50 41 255 
0.0905557 -0.0776615 -2.62446 -0.739171 -0.0600542 0.670835 71 71 70 255 
0.0423302 -0.0766402 -2.58429 0.367695 -0.724666 0.582804 118 121 119 255 
0.0434518 -0.0764477 -2.58476 -0.145306 -0.0610891 0.987499 89 90 88 255 
0.0431618 -0.0766577 -2.58516 0.574364 -0.404122 0.711893 106 107 104 255 
0.0437463 -0.0767538 -2.58503 0.100911 -0.243965 0.96452 88 90 86 255 
0.0438781 -0.0764612 -2.58485 0.247479 0.0379066 0.968152 58 58 56 255 
0.0442594 -0.0766896 -2.58538 0.0815227 -0.161968 0.983423 76 77 75 255 
0.0443431 -0.0764184 -2.58509 0.491443 0.135324 0.860332 41 41 40 255 
0.0473167 -0.0766586 -2.59061 0.429186 -0.570931 0.699883 108 111 110 255 
0.0479965 -0.076597 -2.59157 0.532735 -0.358719 0.766495 109 109 108 255 
0.0566271 -0.0767717 -2.59882 0.339636 -0.531455 0.776017 115 121 113 255 
0.0585866 -0.0769298 -2.60092 0.349933 -0.370944 0.860202 174 181 177 255 
0.0598829 -0.0770623 -2.6015 0.527322 -0.54825 0.649117 144 138 132 255 
0.090729 -0.0779373 -2.63108 -0.760121 -0.411279 0.503056 142 145 138 255 
0.0907212 -0.0784895 -2.62533 -0.907515 0.0820853 0.411921 89 87 83 255 
0.0909756 -0.0780915 -2.62611 -0.663338 -0.401603 0.631425 58 57 54 255 
0.0423768 -0.0769391 -2.58491 0.263652 -0.827373 0.495925 121 124 122 255 
0.043359 -0.0768237 -2.58495 0.504796 -0.550215 0.665165 105 106 102 255 
0.0443502 -0.0773119 -2.58571 0.40064 -0.364182 0.840749 97 100 96 255 
0.0592483 -0.0775479 -2.60169 0.426601 -0.644182 0.634855 131 133 126 255 
0.0898772 -0.0787294 -2.63249 -0.8943 0.15194 0.420883 85 101 115 255 
0.0909272 -0.078589 -2.62945 -0.721509 -0.197668 0.663591 111 110 100 255 
0.0536306 -0.078122 -2.59728 -0.0237611 -0.0607552 0.99787 112 113 109 255 
0.0541097 -0.0779663 -2.59726 0.150497 -0.707568 0.690433 80 80 78 255 
0.0893701 -0.0793866 -2.6318 -0.49096 0.277191 0.825908 118 144 157 255 
0.0902075 -0.079344 -2.63297 -0.454789 0.302841 0.837529 130 151 165 255 
0.091318 -0.0794076 -2.63086 -0.908018 0.100115 0.406792 118 124 120 255 
0.091332 -0.0794086 -2.63107 -0.903932 0.103852 0.414876 129 136 133 255 
0.038046 -0.0780204 -2.57811 -0.701781 0.10347 0.704839 115 115 113 255 
0.0378571 -0.0778027 -2.5783 -0.682448 0.0955105 0.724667 119 120 123 255 
0.0382298 -0.0778524 -2.57819 -0.706581 0.0692375 0.704236 119 117 115 255 
0.0384177 -0.0780562 -2.57805 -0.687048 0.13086 0.714731 116 113 110 255 
0.0398801 -0.077962 -2.58069 0.380175 -0.767904 0.515549 101 95 92 255 
0.0512457 -0.0783743 -2.59495 0.156485 0.483518 0.861233 127 128 126 255 
0.0526881 -0.0782983 -2.59533 0.762902 -0.512085 0.394652 123 122 116 255 
0.0530742 -0.0783699 -2.59716 0.398288 -0.554537 0.730654 123 120 116 255 
0.0528745 -0.0782504 -2.59666 0.202308 -0.804241 0.558809 125 124 119 255 
0.0532795 -0.0781445 -2.59742 0.550232 -0.457469 0.698546 118 118 113 255 
0.0536122 -0.0783293 -2.59747 0.51671 -0.317272 0.795204 120 121 117 255 
0.0831088 -0.0795868 -2.62393 0.326736 -0.114777 0.93812 73 84 78 255 
0.0916719 -0.0798122 -2.63125 -0.892067 0.103152 0.439973 120 123 128 255 
0.0380164 -0.0783971 -2.578 -0.700296 0.105403 0.706028 112 111 111 255 
0.0398985 -0.0783621 -2.58114 0.435684 -0.618227 0.654197 115 115 115 255 
0.0398742 -0.078375 -2.58132 0.433158 -0.406939 0.804224 116 117 118 255 
0.0401723 -0.0787133 -2.58155 0.330291 0.111002 0.93733 119 121 124 255 
0.0406047 -0.078459 -2.58113 0.460611 -0.155705 0.873838 109 107 104 255 
0.0403821 -0.0783231 -2.58153 0.43128 -0.385376 0.815771 113 110 108 255 
0.0402768 -0.0783769 -2.58145 0.434385 -0.395731 0.809139 115 112 110 255 
0.0407743 -0.0783589 -2.58162 0.335991 -0.699449 0.630779 105 101 99 255 
0.0518893 -0.0787698 -2.595 0.0099539 0.333242 0.942789 117 118 118 255 
0.0514345 -0.0787505 -2.59508 -0.0784722 0.373841 0.924167 128 129 127 255 
0.0827674 -0.0801797 -2.624 0.26936 -0.174954 0.947014 39 48 41 255 
0.0834821 -0.080129 -2.62479 -0.104653 0.190083 0.976174 72 87 93 255 
0.091925 -0.0802381 -2.63064 -0.876498 0.0657446 0.476896 91 90 92 255 
0.0380368 -0.0787787 -2.57777 -0.720588 0.0642986 0.690376 113 112 114 255 
0.0399892 -0.0790827 -2.58146 0.389458 0.194732 0.900223 108 108 105 255 
0.0397246 -0.0791815 -2.58145 0.398487 0.437671 0.80601 116 119 120 255 
0.04047 -0.0787994 -2.58136 0.413142 -0.123183 0.902297 113 112 112 255 
0.0516745 -0.0791546 -2.59493 0.0145609 0.449058 0.893384 128 129 127 255 
0.052436 -0.0794877 -2.59485 0.628661 -0.258526 0.733451 123 122 118 255 
0.0825838 -0.0807497 -2.62459 -0.773664 -0.135108 0.619024 41 49 46 255 
0.0840559 -0.0806102 -2.62542 -0.750187 -0.136199 0.647046 78 95 102 255 
0.0918746 -0.0809968 -2.6307 -0.912157 0.0763388 0.402668 80 80 88 255 
0.0407494 -0.0793506 -2.58114 0.308428 0.538524 0.784133 105 95 88 255 
0.0476198 -0.0798014 -2.58973 0.438062 0.345444 0.829922 122 120 121 255 
0.0483828 -0.0800892 -2.59027 0.507268 -0.392538 0.767198 121 120 121 255 
0.0822643 -0.0812148 -2.62439 -0.857013 -0.00610563 0.515258 57 69 68 255 
0.0828379 -0.0815083 -2.62504 -0.89661 0.0213574 0.442305 104 116 122 255 
0.0834092 -0.0810705 -2.62474 -0.77385 0.0570502 0.630795 79 94 96 255 
0.0917114 -0.0818082 -2.62984 -0.911675 0.0725865 0.404449 91 89 99 255 
0.0916742 -0.0819286 -2.62965 -0.887248 0.0557752 0.457908 91 88 98 255 
0.0397426 -0.080229 -2.58022 0.517111 0.289556 0.805453 102 102 98 255 
0.0395204 -0.0801858 -2.58042 0.383427 0.4572 0.802466 112 112 109 255 
0.0394654 -0.0802209 -2.58032 0.352947 0.492591 0.795476 113 112 109 255 
0.0395204 -0.0801858 -2.58042 0.383427 0.4572 0.802466 112 112 109 255 
0.0398315 -0.0802147 -2.58033 0.471307 0.320217 0.821785 99 99 95 255 
0.0398315 -0.0802147 -2.58033 0.471307 0.320217 0.821785 99 99 95 255 
0.0479701 -0.0802828 -2.58972 0.400725 -0.60737 0.685945 123 126 127 255 
0.0493419 -0.0804662 -2.59028 -0.746337 0.244568 0.619005 99 101 106 255 
0.0817551 -0.0817857 -2.62508 -0.887583 -0.103199 0.448938 81 89 93 255 
0.0828888 -0.0816727 -2.62467 -0.830583 -0.0844571 0.550453 143 155 164 255 
0.0834502 -0.0821786 -2.62417 -0.848947 -0.0638818 0.524603 90 102 109 255 
0.0909914 -0.0825035 -2.62913 -0.880585 0.0625659 0.469739 177 174 175 255 
0.0377657 -0.0804488 -2.57876 0.637814 0.266931 0.722455 102 100 94 255 
0.0377657 -0.0804488 -2.57876 0.637814 0.266931 0.722455 102 100 94 255 
0.0401923 -0.0804938 -2.58075 0.303047 0.405558 0.862372 60 61 53 255 
0.0407079 -0.0804993 -2.58077 0.782436 0.501356 0.369373 78 76 70 255 
0.0420363 -0.0807454 -2.58183 0.276952 -0.757413 0.59129 102 105 101 255 
0.0439584 -0.0807381 -2.58345 0.312594 -0.825231 0.470402 104 108 102 255 
0.0445318 -0.0807581 -2.58373 0.508051 -0.758821 0.407523 84 81 75 255 
0.0477024 -0.0810924 -2.58985 0.593371 -0.285541 0.75258 109 108 103 255 
0.0495209 -0.080759 -2.59 -0.764787 0.169895 0.621479 98 101 104 255 
0.0502785 -0.0808471 -2.60333 -0.734564 0.0878712 0.672826 112 110 106 255 
0.0515428 -0.0810874 -2.60093 -0.767282 0.224935 0.600569 71 69 64 255 
0.052092 -0.0812075 -2.60023 -0.768021 0.222213 0.600637 94 92 86 255 
0.0520977 -0.0811816 -2.59978 -0.239918 0.225164 0.94432 95 92 86 255 
0.0530457 -0.0813696 -2.59523 -0.772571 -0.220784 0.595305 95 93 87 255 
0.0524832 -0.0809761 -2.60042 -0.579548 0.263193 0.771267 92 83 76 255 
0.0762456 -0.0821789 -2.63762 0.345852 0.780519 0.520745 32 34 27 255 
0.0823753 -0.0822742 -2.62621 -0.806053 -0.390998 0.444296 104 114 106 255 
0.0829943 -0.0827644 -2.625 -0.863567 -0.220909 0.453267 75 78 70 255 
0.0839968 -0.0827672 -2.62335 -0.895243 -0.076346 0.438988 59 63 51 255 
0.0388727 -0.0810482 -2.57998 0.439124 0.388213 0.810223 94 93 93 255 
0.0389898 -0.0810292 -2.58024 0.251919 0.544004 0.800373 86 85 84 255 
0.0394521 -0.0809 -2.58014 0.371933 0.284323 0.883644 42 40 37 255 
0.0400002 -0.0808954 -2.58055 0.786445 0.486546 0.380496 29 28 24 255 
0.0408385 -0.0811763 -2.58097 0.572136 -0.131861 0.80949 29 28 24 255 
0.0435041 -0.0813418 -2.58381 0.24705 -0.847121 0.47048 60 60 51 255 
0.0435321 -0.0811147 -2.58315 0.244954 -0.779235 0.57688 94 95 93 255 
0.0440055 -0.0810631 -2.58378 0.277602 -0.845179 0.456738 92 91 85 255 
0.0440039 -0.0813728 -2.58434 0.275733 -0.844022 0.459997 76 77 67 255 
0.0445433 -0.081078 -2.58425 0.309779 -0.845406 0.435116 83 82 76 255 
0.0445567 -0.0813918 -2.58475 0.466275 -0.707204 0.53146 62 61 53 255 
0.0497719 -0.0813509 -2.58913 -0.764212 0.188738 0.616732 95 95 98 255 
0.0499321 -0.0816331 -2.58878 -0.700487 0.32336 0.636204 97 99 101 255 
0.0499414 -0.0815609 -2.605 -0.320158 0.342848 0.883151 111 107 106 255 
0.0507849 -0.0814579 -2.60241 -0.737494 0.140362 0.660607 95 87 82 255 
0.0523669 -0.0817534 -2.59853 -0.795667 0.00843486 0.605675 100 95 86 255 
0.0519062 -0.081746 -2.59913 -0.793811 -0.0504049 0.606072 94 83 72 255 
0.0523496 -0.0815583 -2.59929 -0.413331 -0.0619893 0.908468 101 100 91 255 
0.0754103 -0.0824793 -2.63569 -0.869834 -0.104037 0.48225 43 45 36 255 
0.0828355 -0.0832924 -2.6276 -0.199074 -0.848113 0.490992 86 89 72 255 
0.0834811 -0.0832124 -2.62484 0.627486 -0.557567 0.54349 58 61 50 255 
0.0375811 -0.0813181 -2.57713 0.570828 -0.0817319 0.816991 120 120 123 255 
0.0378686 -0.0812218 -2.57827 0.658445 0.240459 0.713183 104 102 97 255 
0.0381835 -0.0812844 -2.57875 0.45888 -0.185354 0.868949 102 100 94 255 
0.0390044 -0.0816659 -2.5797 0.0799691 0.658325 0.748474 102 102 104 255 
0.0392517 -0.0812958 -2.58004 0.417045 0.794487 0.441433 75 70 66 255 
0.0396455 -0.0812902 -2.58045 0.521149 0.73892 0.427085 42 38 35 255 
0.0397874 -0.0817137 -2.58062 0.383954 0.509628 0.769973 58 58 65 255 
0.0411673 -0.0815183 -2.58111 0.895478 0.298119 0.330521 24 24 22 255 
0.0425632 -0.0816827 -2.58366 0.496191 -0.619147 0.608647 26 26 23 255 
0.0429922 -0.0816186 -2.5839 0.402153 -0.755377 0.517376 29 28 26 255 
0.0430048 -0.0817335 -2.58396 0.417568 -0.65832 0.6263 27 26 26 255 
0.042719 -0.0814431 -2.58306 0.642316 -0.348101 0.682829 30 30 25 255 
0.0435754 -0.0816598 -2.58398 0.53349 -0.347664 0.77105 30 30 24 255 
0.0440459 -0.0816989 -2.5847 0.450587 -0.729586 0.514466 34 34 27 255 
0.0444743 -0.0815133 -2.58415 0.43869 -0.554967 0.706798 102 106 101 255 
0.0465009 -0.0819652 -2.587 0.289117 -0.701186 0.651729 81 83 73 255 
0.0464093 -0.0820022 -2.58696 0.383583 -0.625461 0.679458 65 66 56 255 
0.0463824 -0.0819894 -2.58713 0.350783 -0.31396 0.882258 59 60 50 255 
0.0470017 -0.0820527 -2.58741 0.462871 -0.466751 0.753587 84 87 77 255 
0.0474642 -0.0821384 -2.58774 0.449582 -0.639973 0.623146 96 97 92 255 
0.0471557 -0.082061 -2.5878 0.548374 -0.341873 0.763157 90 93 83 255 
0.0477699 -0.0816941 -2.5877 0.829876 -0.417447 0.370195 95 93 86 255 
0.0477701 -0.0817033 -2.58767 0.826951 -0.424352 0.368887 98 96 90 255 
0.0497533 -0.0820438 -2.58882 -0.434227 -0.039125 0.899954 123 128 134 255 
0.0498979 -0.0820708 -2.60483 -0.535026 -0.19907 0.821047 114 111 105 255 
0.0499381 -0.0818067 -2.6051 -0.702962 -0.0769101 0.707057 110 107 104 255 
0.0502079 -0.0818524 -2.60514 -0.600478 0.0777373 0.795853 99 91 87 255 
0.052284 -0.0821677 -2.59789 -0.458874 -0.164261 0.873186 93 85 75 255 
0.0530113 -0.0823936 -2.59589 -0.780727 -0.186401 0.596422 99 98 92 255 
0.0534924 -0.0822323 -2.5954 -0.737698 -0.336871 0.58508 95 95 90 255 
0.074881 -0.0832204 -2.63548 -0.872168 -0.0864003 0.481517 63 65 61 255 
0.0807496 -0.0838763 -2.62594 0.829696 0.10129 0.548949 93 94 86 255 
0.0821302 -0.0834153 -2.62852 -0.201103 -0.801346 0.563384 37 39 26 255 
0.0379093 -0.0818554 -2.57717 0.303941 0.278731 0.911004 86 87 90 255 
0.0379973 -0.081695 -2.57883 0.573764 0.321597 0.75324 102 99 95 255 
0.0388113 -0.0818732 -2.57916 0.357728 0.551864 0.75331 101 99 94 255 
0.0389669 -0.0818766 -2.57981 0.140626 0.511576 0.847652 102 100 97 255 
0.0388991 -0.0820201 -2.57965 0.263374 0.484893 0.833974 108 109 107 255 
0.039355 -0.0818707 -2.58017 0.126536 0.474562 0.87108 80 72 71 255 
0.0395672 -0.0822144 -2.58016 0.196607 0.319792 0.926865 68 57 53 255 
0.0400144 -0.0821946 -2.58026 0.135741 0.261763 0.955539 28 28 31 255 
0.0401168 -0.0818915 -2.58018 0.0910763 0.486276 0.869046 25 25 26 255 
0.0397957 -0.0818692 -2.58029 0.0856247 0.490528 0.867209 50 47 52 255 
0.0403101 -0.0822242 -2.58009 0.243413 0.177319 0.953577 23 24 23 255 
0.0416775 -0.0821788 -2.57892 0.814219 -0.475705 0.332793 13 14 13 255 
0.0421206 -0.0820948 -2.58356 0.554984 -0.627404 0.54622 18 18 17 255 
0.0425743 -0.0821209 -2.58405 0.534193 -0.6012 0.594304 19 20 18 255 
0.043144 -0.0821649 -2.58402 0.545209 -0.630402 0.552575 20 21 20 255 
0.0434431 -0.0822184 -2.58457 0.56555 -0.597822 0.568121 21 21 20 255 
0.0461041 -0.0822903 -2.58716 0.234908 -0.774048 0.587935 30 29 25 255 
0.0465126 -0.0824129 -2.58739 0.434174 -0.549166 0.714079 28 28 22 255 
0.0465006 -0.0826081 -2.5878 0.437568 -0.662395 0.608084 25 26 23 255 
0.0470089 -0.0824767 -2.58782 0.382807 -0.62238 0.682716 29 29 24 255 
0.047496 -0.0825472 -2.58823 0.451933 -0.638972 0.622472 33 33 26 255 
0.0480789 -0.0825769 -2.58868 0.213505 -0.801996 0.557869 46 48 39 255 
0.0481971 -0.0822159 -2.58807 0.12669 -0.837006 0.532326 109 113 109 255 
0.0502785 -0.0824165 -2.60504 -0.794393 -0.0829535 0.601713 108 104 99 255 
0.0502732 -0.0824161 -2.60509 -0.794107 -0.0820273 0.602217 108 104 99 255 
0.0501136 -0.0827381 -2.60464 -0.795671 -0.0582506 0.602921 110 109 105 255 
0.0502636 -0.082415 -2.60517 -0.794379 -0.0802188 0.602103 108 104 99 255 
0.0500807 -0.0827345 -2.6049 -0.787384 -0.124806 0.603697 110 109 105 255 
0.0506263 -0.0826699 -2.60444 -0.794527 -0.0676199 0.603452 99 96 90 255 
0.0509768 -0.0823915 -2.6045 -0.55768 -0.175698 0.811248 89 79 72 255 
0.0519931 -0.0828389 -2.59898 -0.751851 -0.0563939 0.656916 95 92 85 255 
0.0755212 -0.0838385 -2.63484 -0.854429 -0.0450348 0.517614 75 77 68 255 
0.0816691 -0.0842844 -2.62881 -0.267533 -0.833377 0.483642 109 109 102 255 
0.0829581 -0.0844001 -2.629 -0.807717 -0.103203 0.580467 81 83 72 255 
0.083227 -0.0840421 -2.6284 -0.85626 -0.258907 0.446975 50 54 36 255 
0.0835304 -0.0841649 -2.62818 -0.895582 0.0260624 0.444133 58 62 45 255 
0.0845092 -0.0846569 -2.62286 -0.896015 -0.00661788 0.443974 83 90 91 255 
0.037761 -0.0824449 -2.5777 0.473641 0.340775 0.812118 118 122 127 255 
0.0386718 -0.0825903 -2.57906 0.559043 0.100985 0.822966 107 108 105 255 
0.0389899 -0.0826205 -2.5791 0.286213 0.353596 0.890534 112 115 116 255 
0.0390998 -0.082274 -2.57914 0.352851 0.394219 0.84858 109 110 114 255 
0.0392121 -0.0823272 -2.57918 0.0726629 0.313887 0.946676 104 104 109 255 
0.0394646 -0.0822644 -2.57977 0.35623 0.393652 0.84743 87 78 78 255 
0.0394847 -0.082623 -2.57927 0.0922049 0.193827 0.976693 69 67 76 255 
0.0393738 -0.0825542 -2.57919 0.166073 0.165167 0.972183 82 81 90 255 
0.0393738 -0.0825542 -2.57919 0.166073 0.165167 0.972183 82 81 90 255 
0.0400758 -0.0824467 -2.58006 0.0570148 0.157022 0.985948 27 27 29 255 
0.0403945 -0.0827136 -2.58035 0.598217 0.0616663 0.798958 24 26 21 255 
0.0466314 -0.0827656 -2.58814 0.580675 -0.533487 0.614986 23 23 23 255 
0.0480268 -0.082783 -2.58892 0.378792 -0.717028 0.585138 29 29 24 255 
0.0491131 -0.082991 -2.58915 -0.583735 -0.525925 0.618593 110 113 108 255 
0.0503753 -0.0829824 -2.60473 -0.795459 -0.057921 0.603233 104 103 99 255 
0.0519972 -0.0832717 -2.59508 -0.56628 -0.00692266 0.824184 90 89 84 255 
0.0527667 -0.08312 -2.59562 0.0210078 0.602471 0.797864 112 114 110 255 
0.0535374 -0.0832685 -2.59502 -0.572244 -0.445014 0.688839 98 98 97 255 
0.0755733 -0.084453 -2.63484 -0.490666 0.324486 0.808676 78 81 68 255 
0.0761315 -0.0844362 -2.63436 -0.851342 -0.100794 0.514838 97 100 86 255 
0.0815998 -0.0850118 -2.62803 0.530575 -0.655491 0.537422 137 135 128 255 
0.0813994 -0.0848192 -2.62733 0.719719 -0.210348 0.661634 134 133 126 255 
0.0818523 -0.0846857 -2.62811 -0.85352 -0.115982 0.507988 126 126 120 255 
0.0822845 -0.0846951 -2.62882 -0.32287 -0.712421 0.623066 124 123 115 255 
0.0821097 -0.0851355 -2.6287 -0.722386 -0.458169 0.517918 133 133 128 255 
0.0827647 -0.0848348 -2.62896 -0.72949 -0.345225 0.590477 115 115 109 255 
0.0835106 -0.0848891 -2.62827 -0.882987 0.0316003 0.468332 67 71 60 255 
0.0832092 -0.0852505 -2.62869 -0.896396 -0.0107563 0.443124 88 90 87 255 
0.0833194 -0.084677 -2.62857 -0.886321 0.0512867 0.460223 75 77 68 255 
0.0841785 -0.0848234 -2.62801 -0.863376 0.0711297 0.499522 97 105 101 255 
0.0380689 -0.0829569 -2.57794 0.546829 0.249744 0.799128 103 102 99 255 
0.0388235 -0.0830188 -2.57875 0.381192 0.31137 0.870483 114 117 117 255 
0.0387485 -0.082976 -2.57892 0.534636 0.189944 0.823459 113 116 115 255 
0.0397146 -0.0830133 -2.57912 0.950636 0.0245504 0.309335 73 63 58 255 
0.0397475 -0.0828007 -2.57963 0.596348 0.0874692 0.797946 60 54 55 255 
0.0397475 -0.0828007 -2.57963 0.596348 0.0874692 0.797946 60 54 55 255 
0.0447269 -0.0834528 -2.59445 -0.702942 -0.341357 0.623977 31 32 27 255 
0.0445344 -0.0833782 -2.59484 -0.70324 0.0315468 0.710253 37 37 31 255 
0.0454439 -0.0833784 -2.59232 -0.386253 -0.515532 0.764876 15 16 17 255 
0.0458287 -0.0833572 -2.59214 0.220215 -0.845762 0.485997 13 13 12 255 
0.0513275 -0.0837559 -2.59591 -0.197168 -0.653702 0.730615 89 87 81 255 
0.0519947 -0.0836831 -2.59498 -0.528732 -0.0846946 0.844553 89 90 88 255 
0.0516829 -0.0835287 -2.59503 -0.64832 -0.325329 0.688362 90 89 84 255 
0.0517093 -0.0839329 -2.59535 -0.775156 -0.166315 0.609485 93 92 87 255 
0.0527372 -0.0835857 -2.59551 -0.0392415 0.59793 0.800587 84 87 85 255 
0.0529711 -0.0836952 -2.59527 0.437855 -0.0255803 0.898681 70 72 72 255 
0.0530945 -0.0839977 -2.59475 -0.392716 0.326918 0.859592 48 48 48 255 
0.053421 -0.0839952 -2.59518 0.372317 0.80216 0.466818 28 26 25 255 
0.0756077 -0.085096 -2.63556 -0.793885 -0.0190788 0.607769 60 61 51 255 
0.0752663 -0.0854242 -2.63558 -0.727154 0.0522486 0.684484 65 66 60 255 
0.0759065 -0.0854028 -2.63342 0.740227 -0.252012 0.62334 86 87 71 255 
0.0819149 -0.0854702 -2.62864 -0.741222 -0.430004 0.515448 134 133 128 255 
0.0825816 -0.0852759 -2.62874 -0.724884 -0.377541 0.5762 129 128 124 255 
0.0823252 -0.0856596 -2.62863 -0.860459 -0.176809 0.477858 134 134 130 255 
0.0829374 -0.0855842 -2.62872 -0.894524 -0.0655106 0.442194 120 121 118 255 
0.0834681 -0.0856258 -2.62794 -0.897975 0.0235235 0.439418 114 119 111 255 
0.0839386 -0.0856143 -2.62539 -0.743413 0.0505748 0.666917 186 193 190 255 
0.0378584 -0.0833405 -2.5775 0.552887 0.21244 0.80572 114 116 118 255 
0.0379269 -0.0831616 -2.57739 0.453778 0.234815 0.859621 116 120 121 255 
0.0379269 -0.0831616 -2.57739 0.453778 0.234815 0.859621 116 120 121 255 
0.0387878 -0.0833614 -2.57886 0.358227 0.333235 0.87214 113 114 113 255 
0.0388156 -0.0835268 -2.57855 0.52432 0.292961 0.799539 110 112 111 255 
0.0393175 -0.0835922 -2.5788 0.39259 0.302657 0.868488 98 98 103 255 
0.0391674 -0.083378 -2.5789 0.347738 0.334213 0.876002 108 110 113 255 
0.0397468 -0.0836911 -2.5793 0.301091 0.380118 0.87456 59 53 54 255 
0.0399157 -0.0833273 -2.57997 0.642343 0.203675 0.738859 52 45 39 255 
0.0401288 -0.0836864 -2.58007 0.262977 0.334587 0.904928 25 24 24 255 
0.0402962 -0.0833252 -2.58029 0.248668 0.302784 0.920047 26 27 21 255 
0.0407094 -0.0833208 -2.58085 -0.0896884 0.832125 0.547288 20 22 18 255 
0.0483388 -0.0841157 -2.58935 0.524012 -0.0278406 0.851256 88 90 69 255 
0.048601 -0.0839081 -2.58974 0.485027 -0.0262093 0.874107 80 80 61 255 
0.0513129 -0.0840844 -2.59615 -0.103788 -0.546121 0.831252 95 94 87 255 
0.0520722 -0.084496 -2.59503 -0.654375 0.103677 0.749029 95 96 97 255 
0.0515835 -0.0844839 -2.59572 -0.560802 0.0109641 0.827877 98 97 90 255 
0.0520674 -0.0840075 -2.59499 -0.682609 -0.145821 0.716087 94 95 97 255 
0.0825945 -0.0863653 -2.63159 -0.893157 -0.0188682 0.44935 140 138 135 255 
0.0825903 -0.086372 -2.63107 -0.880407 -0.120833 0.458566 137 137 134 255 
0.082711 -0.0859713 -2.62909 -0.885428 -0.135135 0.444697 127 128 125 255 
0.0830292 -0.0862773 -2.62852 -0.887903 -0.124203 0.442946 122 123 121 255 
0.0826893 -0.0859713 -2.62851 -0.884252 -0.122551 0.450643 130 132 127 255 
0.0830849 -0.0863834 -2.6283 -0.888299 -0.0983426 0.448613 122 123 120 255 
0.0830305 -0.0862975 -2.62874 -0.89313 -0.0821025 0.442242 122 123 121 255 
0.0831422 -0.0862378 -2.62747 -0.42502 -0.0651807 0.902834 118 118 113 255 
0.0831855 -0.0859878 -2.62862 -0.88373 -0.0902514 0.459212 122 123 119 255 
0.0837589 -0.0862359 -2.6269 -0.466845 -0.144675 0.872425 101 107 100 255 
0.0843614 -0.0862886 -2.62519 -0.596454 -0.416411 0.686181 146 152 155 255 
0.0843434 -0.0862305 -2.62593 -0.779539 -0.0450687 0.624731 125 132 132 255 
0.0378597 -0.0838963 -2.57729 0.433946 0.189784 0.880723 111 113 117 255 
