ply
format ascii 1.0
comment VCGLIB generated
element vertex 634
property float x
property float y
property float z
property float nx
property float ny
property float nz
property uchar red
property uchar green
property uchar blue
property uchar alpha
element face 0
property list uchar int vertex_indices
end_header
0.00701749 -0.0556361 -2.59492 0.360277 0.43577 0.824806 147 131 117 255 
0.00676816 -0.0555717 -2.59493 0.371977 -0.318243 0.871983 148 133 120 255 
0.00754473 -0.0555242 -2.59533 0.00283739 0.193989 0.981 125 112 100 255 
0.00804011 -0.0555475 -2.59526 -0.0367035 0.128687 0.991006 145 131 128 255 
0.008518 -0.055528 -2.59525 -0.132913 0.0336417 0.990557 154 139 133 255 
0.0090193 -0.0555474 -2.59513 0.0262721 -0.113002 0.993247 156 140 129 255 
0.00940856 -0.0556165 -2.59496 0.0608116 -0.119053 0.991024 155 138 124 255 
0.00976147 -0.0555704 -2.59455 -0.533733 -0.163439 0.829709 155 141 132 255 
0.010544 -0.0551018 -2.59539 -0.667696 0.344411 0.659973 148 136 130 255 
0.0107444 -0.0553641 -2.59491 -0.194957 0.198187 0.96058 153 139 130 255 
0.0117085 -0.0549344 -2.59582 0.400417 0.197222 0.894857 151 136 130 255 
0.013297 -0.0546849 -2.59605 -0.108136 0.311303 0.944138 156 152 139 255 
0.0138402 -0.0547593 -2.59588 0.187378 0.0555167 0.980718 205 206 203 255 
0.0142172 -0.0548593 -2.59572 0.218917 0.0670643 0.973436 205 205 204 255 
0.0157736 -0.0547391 -2.59575 -0.111674 0.573542 0.811529 212 213 213 255 
0.0172231 -0.0548584 -2.59504 0.294604 0.290933 0.910256 212 213 213 255 
0.0177274 -0.054849 -2.5951 -0.0351241 0.0272962 0.99901 217 218 217 255 
0.0229568 -0.0552158 -2.59317 -0.00345525 0.271963 0.962302 217 217 216 255 
0.0227939 -0.0549363 -2.59358 -0.744269 -0.352579 0.567231 218 217 217 255 
0.0234446 -0.055342 -2.59288 -0.301625 0.297104 0.905954 214 214 213 255 
0.0259397 -0.0556975 -2.59198 -0.0949422 0.36609 0.925724 215 216 214 255 
0.0267931 -0.055645 -2.59184 -0.102392 0.187957 0.976826 152 155 160 255 
0.0314953 -0.0569889 -2.58747 -0.682734 -0.132409 0.718569 221 219 217 255 
0.0319227 -0.0568936 -2.58711 -0.593249 0.0548102 0.803151 209 209 205 255 
0.0319086 -0.0566569 -2.58757 -0.648137 0.177383 0.740576 213 213 212 255 
0.0324813 -0.056919 -2.58701 -0.661018 -0.323575 0.677018 209 210 201 255 
0.0336129 -0.0570421 -2.58685 -0.127662 -0.416423 0.900163 79 80 71 255 
0.0341378 -0.0570395 -2.58665 -0.317311 -0.843236 0.433897 75 77 84 255 
0.0344855 -0.0572559 -2.58618 -0.81254 -0.243697 0.529519 107 110 126 255 
0.0353295 -0.0575898 -2.58502 -0.63194 0.360975 0.68582 230 230 230 255 
0.0353854 -0.0578187 -2.58425 -0.491048 0.427013 0.759297 224 225 224 255 
0.0354741 -0.0576796 -2.58459 -0.565925 0.414696 0.71257 224 226 225 255 
0.0355469 -0.0576807 -2.5845 -0.762115 0.313695 0.566371 225 227 225 255 
0.0356938 -0.0578898 -2.584 -0.165833 -0.395109 0.903542 230 233 230 255 
0.0359432 -0.0579514 -2.58367 0.010085 -0.0585684 0.998232 195 194 208 255 
0.0362414 -0.0578836 -2.58365 0.298984 -0.14731 0.94282 94 93 120 255 
-0.0152097 -0.0616705 -2.58286 0.775186 -0.0844885 0.626057 137 142 144 255 
-0.013526 -0.0607621 -2.58509 0.76783 -0.442224 0.463546 137 143 144 255 
-0.013174 -0.0605283 -2.58555 0.766054 -0.481492 0.425826 131 137 139 255 
-0.0121775 -0.0604159 -2.58645 0.789346 -0.309723 0.530098 132 138 141 255 
-0.0121408 -0.0599567 -2.58669 0.629529 -0.344211 0.696571 121 126 129 255 
-0.0118341 -0.0608264 -2.58454 0.915111 -0.269595 0.299818 122 127 129 255 
-0.0120275 -0.0602932 -2.58667 0.711366 -0.281652 0.643917 139 144 147 255 
-0.0115334 -0.0598305 -2.58726 0.614276 -0.319514 0.72151 114 120 123 255 
-0.0117775 -0.0598318 -2.58703 0.604744 -0.248724 0.756585 115 121 124 255 
-0.0110904 -0.0596985 -2.58755 0.589599 -0.141488 0.795207 106 109 116 255 
-0.0105814 -0.0596101 -2.58792 0.647136 0.0228684 0.762031 88 91 97 255 
-0.0100037 -0.0593608 -2.58798 0.57811 -0.706536 0.408162 55 55 57 255 
-0.00981964 -0.0595472 -2.58826 0.0864159 -0.689946 0.718684 76 78 85 255 
-0.00935894 -0.0593154 -2.58808 0.188805 -0.717025 0.67099 114 117 119 255 
-0.00895891 -0.0593553 -2.58845 0.449831 -0.577085 0.681634 138 142 142 255 
-0.00832666 -0.0591399 -2.58909 0.690729 -0.225414 0.687082 144 147 148 255 
-0.00792542 -0.0591011 -2.58913 0.71113 -0.109684 0.694452 147 151 153 255 
-0.00746513 -0.0587298 -2.58989 0.739833 -0.114661 0.662947 145 149 151 255 
-0.006801 -0.0583982 -2.59026 0.73614 -0.121196 0.665891 150 155 157 255 
-0.00393605 -0.0574215 -2.59258 0.413084 0.438401 0.798227 150 155 159 255 
-0.00411808 -0.0578429 -2.59224 0.625393 0.0478457 0.778842 155 159 162 255 
-0.00391394 -0.057424 -2.59237 0.465592 0.335541 0.818923 153 158 161 255 
-0.00339698 -0.057388 -2.59282 0.262519 0.299479 0.917276 152 158 161 255 
-0.00286467 -0.0574092 -2.59295 0.294518 0.355821 0.886933 152 158 161 255 
-0.00238209 -0.0575234 -2.59288 0.291284 0.407081 0.865702 152 158 161 255 
-0.00207203 -0.0569756 -2.59332 0.0658914 0.288417 0.955235 144 150 153 255 
-0.00149143 -0.0568924 -2.59355 0.00986598 0.305597 0.95211 145 150 153 255 
-0.00101776 -0.056789 -2.59371 -0.254942 -0.303463 0.918104 144 149 152 255 
-0.000584264 -0.0568175 -2.59361 -0.291934 0.511735 0.808023 152 156 159 255 
-5.34343e-05 -0.0566852 -2.59398 0.125059 0.159233 0.979288 154 159 162 255 
0.000531826 -0.0565728 -2.5943 0.34702 0.339211 0.874364 155 160 163 255 
0.00128624 -0.0563029 -2.59494 0.168737 -0.134723 0.976411 155 160 163 255 
0.00164084 -0.0564579 -2.59459 0.143272 -0.132844 0.980727 152 156 161 255 
0.00207137 -0.0564173 -2.59476 0.113749 -0.267941 0.956697 141 146 153 255 
0.00252189 -0.0563823 -2.59492 0.16921 -0.201268 0.964811 148 154 164 255 
0.00291396 -0.0564415 -2.59484 -0.497866 -0.627444 0.598701 136 142 151 255 
0.00356715 -0.0563024 -2.59492 -0.440575 0.165796 0.882273 122 116 122 255 
0.00414595 -0.056253 -2.59493 0.0844488 0.167435 0.98226 124 113 120 255 
0.0047665 -0.0567092 -2.5939 0.326238 0.2121 0.921185 135 122 128 255 
0.00542721 -0.0561647 -2.59478 -0.136655 -0.467072 0.873596 95 83 90 255 
0.00623654 -0.0557684 -2.59542 -0.10439 -0.885796 0.452182 102 92 83 255 
0.00663083 -0.0558086 -2.5953 -0.0486501 -0.439583 0.896883 103 93 82 255 
0.00744845 -0.0561666 -2.59492 0.554979 0.22516 0.800813 110 96 102 255 
0.00779237 -0.055969 -2.59521 0.00310427 0.215597 0.976478 151 136 134 255 
0.00834948 -0.0559538 -2.59525 0.102605 0.196017 0.975218 158 140 130 255 
0.00879603 -0.0559228 -2.59523 -0.121637 0.234508 0.964474 149 132 116 255 
0.00948162 -0.0555345 -2.5956 -0.138803 0.623607 0.769316 146 129 111 255 
0.0104762 -0.0557204 -2.59508 -0.595239 -0.180163 0.783092 146 129 107 255 
0.0108941 -0.0558072 -2.59495 -0.323079 -0.461517 0.82621 140 124 99 255 
0.0114369 -0.0556766 -2.59511 0.104551 0.523432 0.845629 144 129 107 255 
0.0119456 -0.0555467 -2.59561 0.424605 0.245488 0.871462 132 120 96 255 
0.0119456 -0.0552128 -2.59624 -0.568203 0.400728 0.718723 142 126 107 255 
0.012462 -0.0555615 -2.59577 0.0651923 -0.0657781 0.995702 117 110 101 255 
0.0125136 -0.0551174 -2.59629 -0.345503 0.294398 0.891043 145 132 115 255 
0.0130684 -0.0551776 -2.59578 -0.214389 0.342239 0.914828 133 128 125 255 
0.0128929 -0.0555829 -2.59575 0.181257 0.0981612 0.978525 124 123 127 255 
0.0135917 -0.05519 -2.5958 0.094665 0.261106 0.960657 195 196 198 255 
0.0141438 -0.0551698 -2.59591 0.239626 0.146802 0.959702 206 206 206 255 
0.0139321 -0.0556712 -2.59497 -0.274226 0.617964 0.736831 205 206 205 255 
0.0149399 -0.0552886 -2.59543 -0.388846 0.586432 0.710561 205 206 205 255 
0.0154454 -0.0552933 -2.59537 -0.0514266 0.377601 0.924539 209 209 209 255 
0.0160673 -0.0551871 -2.59561 -0.275594 0.46028 0.843914 208 209 208 255 
0.0169912 -0.0555128 -2.59517 -0.417295 0.423166 0.804236 208 208 208 255 
0.0175225 -0.0555269 -2.59484 -0.181248 0.243103 0.952917 208 209 209 255 
0.0208913 -0.0555502 -2.59391 -0.747981 0.274783 0.604168 214 215 215 255 
0.0218808 -0.0556683 -2.59329 -0.497605 0.25883 0.827887 215 215 215 255 
0.0231572 -0.0557247 -2.59288 -0.151596 0.376311 0.914007 216 216 215 255 
0.0236269 -0.0558315 -2.59258 -0.361159 0.305949 0.880885 212 212 211 255 
0.0238132 -0.0556998 -2.59277 -0.342707 0.355409 0.869619 212 212 210 255 
0.0242611 -0.0557138 -2.59255 -0.353568 -0.132475 0.925981 212 212 210 255 
0.0256923 -0.0561271 -2.592 -0.339226 -0.441167 0.830841 217 218 214 255 
0.0260582 -0.0561463 -2.59178 -0.391566 -0.368985 0.842927 219 219 218 255 
0.026493 -0.0561148 -2.59167 -0.109133 0.279802 0.953835 162 164 169 255 
0.0269696 -0.0561836 -2.59142 -0.75075 -0.141188 0.645322 153 155 159 255 
0.0303905 -0.0569553 -2.58809 -0.72007 -0.678139 0.147057 200 201 201 255 
0.0306665 -0.0572065 -2.58805 -0.474722 0.577436 0.664234 212 212 207 255 
0.0304397 -0.0573936 -2.58747 -0.747427 -0.00486143 0.664326 210 210 206 255 
0.0309924 -0.0571762 -2.58758 -0.507867 -0.353959 0.785356 211 211 206 255 
0.0314969 -0.0570436 -2.58775 -0.337899 -0.141113 0.930544 221 220 214 255 
0.0315208 -0.0574302 -2.58681 -0.666009 0.0438518 0.744654 200 201 189 255 
0.0320344 -0.057384 -2.58703 -0.728375 -0.224906 0.647215 144 145 130 255 
0.0327833 -0.0574017 -2.58713 -0.489288 0.527255 0.694694 74 75 72 255 
0.0331291 -0.057395 -2.58708 -0.62885 0.338864 0.6998 71 69 72 255 
0.0340859 -0.0575015 -2.58639 -0.588862 -0.154873 0.793257 131 134 151 255 
0.03401 -0.0574416 -2.58674 -0.769402 0.128416 0.625723 124 126 144 255 
0.0348198 -0.057484 -2.58592 -0.685618 -0.00821944 0.727915 190 192 202 255 
0.034583 -0.0575673 -2.58577 -0.826798 0.0320492 0.561585 177 179 191 255 
0.0347179 -0.0579086 -2.58543 -0.512816 -0.0101897 0.858438 224 225 226 255 
0.0346849 -0.057895 -2.58519 -0.686869 0.206776 0.696746 220 221 223 255 
0.0345434 -0.0578979 -2.58446 -0.966911 -0.173513 0.187021 199 201 208 255 
0.0351926 -0.0584419 -2.58362 -0.103636 0.134425 0.985489 229 230 228 255 
0.0359705 -0.0584635 -2.58314 0.330858 0.0307731 0.943179 111 111 136 255 
0.0360409 -0.0586043 -2.5831 0.00114483 0.540901 0.841086 124 127 144 255 
0.0360409 -0.0586043 -2.5831 0.00114483 0.540901 0.841086 124 127 144 255 
-0.0175709 -0.0639782 -2.57802 0.0447625 0.139263 0.989243 127 133 136 255 
-0.0156727 -0.0624688 -2.58169 0.717433 0.210072 0.664199 131 137 139 255 
-0.0146313 -0.0620425 -2.58321 0.806148 -0.119349 0.579552 136 141 143 255 
-0.0140007 -0.0617867 -2.58394 0.686638 -0.0801204 0.722572 139 144 146 255 
-0.0128614 -0.0611798 -2.58543 0.617118 0.303407 0.726023 136 141 144 255 
-0.0125182 -0.0611064 -2.58529 0.876421 -0.35289 0.327649 128 133 136 255 
-0.0125182 -0.0611064 -2.58529 0.876421 -0.35289 0.327649 128 133 136 255 
-0.0120783 -0.0611888 -2.58495 0.881235 -0.331438 0.337008 128 134 136 255 
-0.0120783 -0.0611888 -2.58495 0.881235 -0.331438 0.337008 128 134 136 255 
-0.011763 -0.0603074 -2.587 0.625049 -0.488367 0.608944 128 134 136 255 
-0.0113364 -0.0602251 -2.58716 -0.151912 -0.145706 0.977595 132 138 141 255 
-0.0108686 -0.0600134 -2.58767 0.530827 -0.0552532 0.845677 125 130 135 255 
-0.0108392 -0.0599168 -2.58794 0.772953 -0.162691 0.613249 122 126 132 255 
-0.0102499 -0.0598935 -2.58793 0.464267 0.0934595 0.880751 107 111 117 255 
-0.00988644 -0.060064 -2.58801 0.565702 0.347982 0.747589 113 118 122 255 
-0.00944417 -0.0596871 -2.58842 -0.248729 -0.659597 0.709272 113 116 121 255 
-0.00861752 -0.0594258 -2.5887 0.74015 -0.0903207 0.666348 140 143 143 255 
-0.00838037 -0.0595348 -2.58925 0.572613 -0.108399 0.812628 139 143 145 255 
-0.00793222 -0.0594731 -2.58951 0.656919 -0.0741652 0.750304 143 146 148 255 
-0.00755651 -0.0592179 -2.5899 0.664913 -0.127115 0.736025 146 151 152 255 
-0.00720881 -0.059057 -2.59013 0.671246 -0.135593 0.728727 147 151 153 255 
-0.00687031 -0.0589173 -2.59032 0.734249 -0.11092 0.669757 148 152 155 255 
-0.00656453 -0.0587814 -2.59045 0.736641 -0.176595 0.65282 150 154 156 255 
-0.00541979 -0.0583731 -2.59165 -0.468275 0.260772 0.844225 152 157 159 255 
-0.00496361 -0.0582902 -2.59162 -0.361686 0.452562 0.81509 151 156 159 255 
-0.00456355 -0.0583475 -2.59141 -0.0411495 0.631682 0.774135 158 162 166 255 
-0.00456355 -0.0583475 -2.59141 -0.0411495 0.631682 0.774135 155 159 163 255 
-0.00366804 -0.0579257 -2.59237 0.42071 0.217046 0.880849 155 159 162 255 
-0.00221905 -0.0576638 -2.59322 0.686958 -0.121719 0.71643 154 160 163 255 
-0.00177969 -0.0573758 -2.5933 0.120236 0.282763 0.951624 148 154 157 255 
-0.00124818 -0.0572446 -2.59362 0.11825 0.0145031 0.992878 147 152 155 255 
-0.000789298 -0.0571706 -2.5937 0.0212202 0.00894041 0.999735 144 149 152 255 
-0.000355376 -0.0572013 -2.59363 0.129301 0.168891 0.977117 148 152 155 255 
0.000145844 -0.0571773 -2.59375 -0.0138156 0.0207296 0.99969 148 153 156 255 
0.000815806 -0.0570521 -2.5942 0.651348 0.157104 0.742337 142 147 150 255 
0.000638 -0.057124 -2.59388 0.150564 0.317726 0.936152 150 155 157 255 
0.00146104 -0.0567492 -2.59484 -0.356906 0.205921 0.911161 148 153 155 255 
0.0018438 -0.0567984 -2.59476 0.0676138 -0.347886 0.935096 149 153 156 255 
0.00231079 -0.0568345 -2.59476 0.500717 -0.506798 0.70174 148 154 154 255 
0.00273339 -0.0567848 -2.59491 0.0313477 -0.41138 0.910925 153 158 160 255 
0.00342049 -0.0568105 -2.59465 -0.418946 0.165572 0.892788 119 114 117 255 
0.00390485 -0.0567233 -2.59468 0.177535 0.178038 0.967876 150 135 131 255 
0.00499362 -0.056754 -2.59433 -0.116248 -0.47443 0.872584 157 144 140 255 
0.00562297 -0.0565728 -2.59496 0.575638 0.086894 0.813074 154 141 134 255 
0.00610011 -0.0561878 -2.59555 -0.164478 0.621457 0.765989 143 131 136 255 
0.0064077 -0.0561628 -2.59543 0.0119174 0.0702286 0.99746 132 121 128 255 
0.00708357 -0.0567438 -2.59441 0.624404 0.121355 0.771617 149 135 128 255 
0.0068326 -0.0561673 -2.59539 -0.273703 -0.371486 0.887178 131 120 125 255 
0.00768551 -0.05649 -2.59515 0.104288 -0.214472 0.971147 155 138 130 255 
0.00811159 -0.0563839 -2.59522 -0.0819463 -0.171949 0.981692 160 141 131 255 
0.00858737 -0.0563141 -2.59531 -0.226116 -0.338349 0.91345 143 127 119 255 
0.00904433 -0.0562703 -2.59532 0.354707 -0.0733086 0.932099 76 70 74 255 
0.00947562 -0.0560687 -2.59527 -0.26855 -0.00917761 0.963222 64 58 55 255 
0.0101318 -0.0560085 -2.59529 -0.684929 0.0379009 0.727623 68 61 53 255 
0.0105934 -0.0562273 -2.59532 -0.598597 0.0600672 0.798795 82 82 97 255 
0.0111916 -0.0561293 -2.59509 0.246059 -0.552359 0.796464 86 76 86 255 
0.0115336 -0.0561663 -2.59506 0.560421 -0.117321 0.819856 100 88 103 255 
0.0119528 -0.0561729 -2.59514 0.629113 -0.0158033 0.777153 107 95 110 255 
0.0120993 -0.0560334 -2.59552 0.278973 -0.0355276 0.959642 103 94 108 255 
0.012476 -0.056126 -2.59542 0.130825 0.106546 0.985664 120 119 129 255 
0.0132974 -0.055676 -2.59557 0.0831924 0.252935 0.9639 187 190 194 255 
0.0138058 -0.0557107 -2.59544 -0.094079 0.421231 0.902061 205 206 206 255 
0.0137239 -0.0561061 -2.59416 -0.177143 0.627516 0.758185 202 203 203 255 
0.0141233 -0.0558669 -2.59535 0.097256 0.455122 0.885102 206 207 206 255 
0.0144066 -0.0556437 -2.59585 0.14568 0.498589 0.85451 204 204 204 255 
0.0155147 -0.0558728 -2.59506 -0.0922156 0.275758 0.956794 204 205 205 255 
0.0151888 -0.0557072 -2.59536 -0.121665 0.192244 0.973776 208 209 209 255 
0.0171222 -0.0560315 -2.59477 -0.511578 0.274045 0.814363 207 208 208 255 
0.0175971 -0.0559926 -2.59477 -0.135025 -0.376412 0.91656 210 211 211 255 
0.0177953 -0.0561638 -2.59444 -0.0732708 -0.351051 0.933485 210 211 210 255 
0.0186829 -0.0561312 -2.59441 0.0790487 -0.210505 0.974392 210 210 210 255 
0.0198598 -0.0561014 -2.59371 0.0280877 0.105206 0.994054 211 212 211 255 
0.0206448 -0.0558984 -2.5938 -0.137395 0.360638 0.922531 213 214 214 255 
0.0209887 -0.0560775 -2.59349 -0.487103 -0.20863 0.848059 214 215 214 255 
0.021413 -0.0560526 -2.59333 -0.426696 -0.0908403 0.899821 214 215 214 255 
0.0219594 -0.055889 -2.59342 -0.12629 -0.11423 0.985395 214 214 213 255 
0.0223461 -0.0559377 -2.59328 -0.12249 0.0351983 0.991845 213 214 213 255 
0.0229441 -0.0562513 -2.59284 -0.505329 0.179306 0.844092 209 209 208 255 
0.0234168 -0.0562271 -2.59266 -0.385256 0.165908 0.907773 212 212 211 255 
0.0239218 -0.0561989 -2.59251 -0.389288 0.180323 0.903293 211 211 210 255 
0.0243063 -0.0562559 -2.59222 -0.292589 0.359048 0.886271 211 211 210 255 
0.0248163 -0.05628 -2.59201 -0.14453 0.36484 0.919784 205 205 204 255 
0.0257159 -0.0566436 -2.59164 -0.117794 0.289064 0.950035 216 216 212 255 
0.0261651 -0.0566009 -2.59156 -0.207861 0.449343 0.868841 214 215 214 255 
0.0268324 -0.0564483 -2.59182 -0.208945 0.0703153 0.975396 153 154 160 255 
0.0272067 -0.0563971 -2.5912 0.297466 0.372006 0.879276 143 144 148 255 
0.0270354 -0.0567015 -2.5902 -0.853407 -0.481223 0.200304 144 146 148 255 
0.0277473 -0.0567135 -2.59075 0.343129 0.346665 0.872975 153 154 160 255 
0.0299279 -0.0575278 -2.58833 -0.58328 0.448804 0.677022 206 206 199 255 
0.0302165 -0.0574197 -2.58807 -0.0966031 -0.5516 0.828496 212 212 206 255 
0.0307067 -0.0576066 -2.58765 -0.412822 -0.234363 0.880143 192 193 178 255 
0.0306973 -0.0576376 -2.58709 -0.831983 -0.0647593 0.551009 207 208 197 255 
0.0310893 -0.0576048 -2.58748 -0.502671 -0.399229 0.766771 167 169 153 255 
0.0317592 -0.0575231 -2.58748 -0.187309 0.496344 0.847678 110 109 95 255 
0.0317592 -0.0575231 -2.58748 -0.187309 0.496344 0.847678 110 109 95 255 
0.0322242 -0.0577776 -2.58712 -0.670714 -0.0883106 0.736441 74 75 83 255 
0.0324083 -0.0576853 -2.58726 0.145854 0.317367 0.937019 72 73 80 255 
0.0324083 -0.0576853 -2.58726 0.145854 0.317367 0.937019 72 73 80 255 
0.0328227 -0.0578118 -2.58715 -0.651192 0.0126325 0.758808 111 113 130 255 
0.0330562 -0.057648 -2.58659 -0.438401 -0.479355 0.760279 85 86 98 255 
0.0333876 -0.0577559 -2.58634 -0.515141 -0.198441 0.833817 117 119 137 255 
0.0344246 -0.0577708 -2.58616 -0.780869 0.0759287 0.620064 215 217 222 255 
0.0339553 -0.0584829 -2.58481 -0.864364 -0.0436478 0.500968 227 228 228 255 
0.0348688 -0.0582803 -2.58482 -0.139825 0.200278 0.96971 228 229 229 255 
0.0347322 -0.0582041 -2.58472 -0.707409 0.230474 0.668173 228 229 228 255 
0.0347656 -0.0586333 -2.58393 -0.0222668 0.284776 0.958335 234 235 235 255 
0.0347593 -0.058637 -2.58392 -0.0201693 0.288406 0.957296 234 235 235 255 
0.0345351 -0.058771 -2.58361 -0.251675 0.088843 0.963725 231 231 231 255 
0.0353688 -0.0588533 -2.58314 -0.245203 0.423125 0.872262 235 236 234 255 
0.0358359 -0.0592108 -2.58257 -0.133525 0.600573 0.788342 138 141 157 255 
0.0358134 -0.0589 -2.58251 -0.181665 0.617307 0.76546 114 117 135 255 
-0.0152969 -0.062562 -2.58233 0.707767 0.2322 0.667195 136 141 144 255 
-0.0143786 -0.0622996 -2.58361 0.774763 -0.0755758 0.627719 135 140 142 255 
-0.0142244 -0.0620839 -2.58376 0.704747 0.181942 0.685732 137 143 145 255 
-0.0131686 -0.0618209 -2.5846 0.787082 -0.0710681 0.612741 138 144 146 255 
-0.0131686 -0.0618209 -2.5846 0.787082 -0.0710681 0.612741 137 143 145 255 
-0.0127357 -0.0616443 -2.58523 0.352191 -0.166813 0.920943 142 148 150 255 
-0.0122324 -0.0613225 -2.58523 0.702015 -0.39201 0.594562 141 145 148 255 
-0.0118008 -0.0609627 -2.58646 0.701545 -0.396482 0.592147 138 143 145 255 
-0.0118062 -0.0609157 -2.58644 0.770167 -0.272805 0.576559 137 143 145 255 
-0.0118062 -0.0609157 -2.58644 0.770167 -0.272805 0.576559 137 143 145 255 
-0.0111341 -0.0606458 -2.58698 0.694131 -0.417252 0.586585 138 144 146 255 
-0.0104219 -0.0602423 -2.58794 0.449215 -0.265277 0.853132 132 137 140 255 
-0.00950056 -0.0601665 -2.58826 0.490635 0.314737 0.812538 124 129 131 255 
-0.00906079 -0.0598446 -2.58867 -0.235956 -0.635487 0.735174 128 132 135 255 
-0.00870519 -0.0600737 -2.58871 0.316985 0.163626 0.93421 135 139 142 255 
-0.00825502 -0.0600526 -2.58892 0.237663 -0.0280587 0.970942 142 146 149 255 
-0.00729069 -0.059528 -2.59019 0.681625 -0.197391 0.704574 142 147 149 255 
-0.00662779 -0.0592898 -2.59053 0.710184 -0.125831 0.69268 150 155 157 255 
-0.0062901 -0.0591299 -2.59074 0.760183 -0.120292 0.638476 147 153 155 255 
-0.0056635 -0.0590424 -2.59105 -0.506776 0.327298 0.79753 152 157 160 255 
-0.00499466 -0.0592639 -2.5906 0.8317 -0.41072 0.37361 140 146 149 255 
-0.00522785 -0.0588876 -2.59123 -0.358059 0.456848 0.8143 142 148 151 255 
-0.00387264 -0.0583621 -2.59223 0.623531 -0.0625734 0.77929 152 156 159 255 
-0.00338231 -0.0583693 -2.59244 0.686456 0.114511 0.718099 143 148 151 255 
-0.00186901 -0.0578243 -2.5932 0.353001 -0.0305441 0.935125 151 157 160 255 
-0.00211158 -0.0582494 -2.59306 0.651782 -0.225653 0.724059 154 159 162 255 
-0.00218495 -0.0578937 -2.59368 0.674466 -0.497103 0.545879 146 153 156 255 
-0.00136391 -0.0577394 -2.59356 -0.151165 0.184793 0.971082 152 158 161 255 
-0.000832771 -0.0580397 -2.59343 0.580547 0.281885 0.763876 145 150 154 255 
-0.000622566 -0.0576672 -2.59341 0.138299 0.227662 0.963869 151 156 158 255 
-0.000112433 -0.05763 -2.59356 0.0519057 0.0607791 0.996801 152 157 160 255 
0.00103919 -0.0574685 -2.5941 -0.186981 0.364555 0.912216 153 157 160 255 
0.00154082 -0.0572971 -2.59445 0.0652836 -0.361478 0.930093 151 155 158 255 
0.0025415 -0.0575644 -2.59386 0.735778 0.266086 0.62276 137 143 146 255 
0.00228379 -0.0573281 -2.5948 0.74043 -0.233982 0.630092 139 144 146 255 
0.002543 -0.0575896 -2.59379 0.742122 0.260405 0.617612 137 143 146 255 
0.002543 -0.0575896 -2.59379 0.742122 0.260405 0.617612 137 143 146 255 
0.0032193 -0.0571948 -2.5948 -0.36129 0.0158655 0.932319 141 145 150 255 
0.00361549 -0.0572523 -2.5946 -0.653716 -0.0860532 0.751832 115 112 113 255 
0.00470119 -0.0572193 -2.5941 0.279133 -0.60162 0.748424 155 140 131 255 
0.00436908 -0.0573516 -2.59439 0.337054 -0.505375 0.794349 146 130 120 255 
0.00527246 -0.0568304 -2.59481 0.330308 0.237529 0.913497 155 140 133 255 
0.00519686 -0.0571021 -2.59446 0.0648309 -0.32148 0.944694 151 136 123 255 
0.00565312 -0.0571171 -2.59495 0.521112 0.0320556 0.852886 118 107 88 255 
0.00641754 -0.0566353 -2.59538 0.365952 0.372713 0.852739 154 138 126 255 
0.00691734 -0.0566916 -2.59543 0.261667 0.445095 0.8564 151 136 118 255 
0.00751387 -0.0570499 -2.59485 -0.0876713 -0.784076 0.614442 146 128 102 255 
0.0079186 -0.0565527 -2.59523 0.075455 -0.133693 0.988146 161 143 131 255 
0.00882313 -0.056677 -2.59536 0.292101 -0.000785603 0.956387 106 103 105 255 
0.00942283 -0.0564908 -2.5956 0.592204 -0.344786 0.728297 118 123 137 255 
0.0100566 -0.0565943 -2.59514 -0.592678 0.0977141 0.799491 119 125 142 255 
0.0109145 -0.0567976 -2.59504 -0.124375 0.450794 0.88392 161 152 150 255 
0.0117863 -0.0565282 -2.59525 0.238205 -0.0808394 0.967845 152 138 131 255 
0.0122444 -0.0565563 -2.59532 0.272925 0.0684251 0.959599 136 131 126 255 
0.0129899 -0.0561493 -2.5954 -0.126534 0.212363 0.968964 173 178 183 255 
0.0126655 -0.0566385 -2.5952 0.167667 0.174894 0.970206 170 173 173 255 
0.0133644 -0.0564923 -2.5955 0.312998 0.0746933 0.946812 203 204 203 255 
0.0136065 -0.0560809 -2.59552 -0.082014 0.302114 0.949737 197 198 198 255 
0.0139668 -0.0562545 -2.59505 0.0549953 0.550203 0.833218 205 205 205 255 
0.0143156 -0.0565892 -2.59491 0.301714 -0.0468915 0.952245 202 203 202 255 
0.0147141 -0.0564122 -2.59473 0.385189 -0.251976 0.887771 200 200 200 255 
0.0152028 -0.0563508 -2.59508 0.377353 -0.467714 0.79928 204 204 204 255 
0.015846 -0.056275 -2.59491 -0.225287 0.377773 0.898072 207 208 208 255 
0.0165962 -0.0561171 -2.59502 -0.221527 0.381813 0.897298 207 208 208 255 
0.0167612 -0.0566109 -2.59458 -0.0456255 -0.276361 0.95997 204 205 204 255 
0.0163701 -0.0565822 -2.59464 -0.396135 -0.436058 0.808041 208 208 208 255 
0.0171879 -0.0565017 -2.59468 -0.260706 0.295917 0.918948 205 206 206 255 
0.0175694 -0.0565329 -2.59457 -0.313851 0.131893 0.940267 206 206 206 255 
0.0180216 -0.0565084 -2.59456 -0.0811175 0.0965894 0.992013 204 205 204 255 
0.0182331 -0.0561552 -2.59442 0.389128 -0.638983 0.663536 209 210 209 255 
0.0185254 -0.0564868 -2.59452 -0.281245 0.0565725 0.957967 203 204 204 255 
0.0192972 -0.0563916 -2.59398 -0.458866 0.562707 0.687607 210 211 212 255 
0.0201296 -0.0564934 -2.59369 -0.039726 0.116227 0.992428 205 206 206 255 
0.0206538 -0.0564452 -2.59356 -0.568026 -0.135427 0.811792 208 209 209 255 
0.0219982 -0.0564007 -2.5936 -0.315565 -0.518062 0.795004 215 215 215 255 
0.0215591 -0.056641 -2.59322 -0.731592 -0.244563 0.636367 211 212 211 255 
0.0221824 -0.0562867 -2.5934 -0.0617315 -0.016264 0.99796 210 210 210 255 
0.0225166 -0.0566892 -2.59292 -0.340396 0.470841 0.813904 216 217 216 255 
0.0231335 -0.0566827 -2.59269 -0.445371 0.0865528 0.891153 214 214 213 255 
0.0235677 -0.0566852 -2.59246 -0.359331 0.148996 0.921239 216 216 214 255 
0.0241052 -0.056632 -2.59236 -0.314588 0.24612 0.916766 213 213 211 255 
0.0245943 -0.0566716 -2.59203 -0.530966 0.0472551 0.846074 210 210 209 255 
0.0254593 -0.0570661 -2.59159 -0.319214 0.309016 0.895886 210 210 207 255 
0.0260905 -0.0569847 -2.59174 -0.715625 -0.165763 0.678531 211 211 206 255 
0.0269734 -0.0567929 -2.59111 -0.00608738 0.585146 0.810905 146 148 155 255 
0.0270892 -0.0568795 -2.5913 0.26526 0.32076 0.909258 160 160 166 255 
0.0272849 -0.0575691 -2.58969 0.132064 0.239881 0.961778 184 183 188 255 
0.0281443 -0.0572607 -2.5907 0.322056 0.342424 0.882624 220 217 215 255 
0.0292136 -0.0572818 -2.58978 -0.382496 -0.00583382 0.923939 206 205 202 255 
0.0293398 -0.0575122 -2.5892 -0.554588 0.540262 0.632889 204 203 198 255 
0.0297583 -0.0576801 -2.58836 -0.577591 0.239942 0.780267 200 200 191 255 
0.0294868 -0.0576357 -2.58879 -0.261863 -0.413546 0.872014 208 207 199 255 
0.0303331 -0.057772 -2.58778 -0.0919805 -0.537206 0.838421 184 185 170 255 
0.0306687 -0.0579861 -2.58782 -0.204988 -0.602396 0.771427 90 92 83 255 
0.0309663 -0.0579843 -2.58762 -0.71514 -0.619575 0.323576 81 82 77 255 
0.0319006 -0.0580067 -2.5876 -0.584332 0.537133 0.608313 96 99 116 255 
0.032277 -0.0577362 -2.58801 -0.243969 0.557072 0.79382 87 89 107 255 
0.0324051 -0.0581495 -2.58741 -0.523704 0.261983 0.810617 162 163 179 255 
0.0324704 -0.0580528 -2.58748 -0.511057 0.124772 0.850443 146 147 166 255 
0.0329804 -0.0577018 -2.58762 -0.689108 -0.02513 0.724223 123 127 147 255 
0.033086 -0.0580788 -2.58695 -0.633925 -0.0535325 0.77154 196 198 207 255 
0.0336217 -0.0582115 -2.58676 -0.730047 0.156826 0.665159 227 229 228 255 
0.0334043 -0.0579713 -2.58686 -0.650255 -0.294363 0.700371 199 201 210 255 
0.0333963 -0.0579768 -2.58685 -0.670219 -0.298988 0.679274 198 200 209 255 
0.0338379 -0.0581107 -2.58616 -0.698529 0.114873 0.706302 224 226 228 255 
0.0357088 -0.0592343 -2.58325 -0.278175 0.476656 0.833917 224 225 225 255 
-0.0140818 -0.0626652 -2.58361 0.763582 0.0819667 0.640488 130 135 138 255 
-0.0140204 -0.0622293 -2.58392 0.702432 -0.257746 0.663443 139 144 146 255 
-0.0138386 -0.062282 -2.58403 0.697072 0.204175 0.687316 135 140 143 255 
-0.0131088 -0.0621739 -2.58467 0.62633 -0.0525998 0.777782 140 145 147 255 
-0.0121435 -0.0617473 -2.58546 0.72904 -0.46276 0.504335 143 148 150 255 
-0.0113938 -0.0611564 -2.58661 -0.0853818 -0.134679 0.987204 141 146 149 255 
-0.011371 -0.0610666 -2.58686 0.000243843 -0.43187 0.901936 141 146 149 255 
-0.0106886 -0.0607067 -2.58761 0.671018 -0.46858 0.574602 143 148 150 255 
-0.0103926 -0.0609371 -2.58717 0.802274 -0.27675 0.528929 134 139 142 255 
-0.0103856 -0.0609158 -2.58723 0.805248 -0.235749 0.544057 134 139 142 255 
-0.0103856 -0.0609158 -2.58723 0.805248 -0.235749 0.544057 134 139 142 255 
-0.00966202 -0.0606301 -2.58797 0.601351 0.329866 0.727713 124 129 132 255 
-0.0091981 -0.0606795 -2.58812 0.644231 0.303072 0.70222 127 132 136 255 
-0.0084722 -0.0605095 -2.58863 0.760287 0.0190125 0.649309 131 137 140 255 
-0.00798923 -0.0603087 -2.58928 0.62064 0.0498358 0.782511 141 147 149 255 
-0.00771655 -0.0598247 -2.58962 0.721915 -0.0485884 0.690273 141 146 148 255 
-0.00713816 -0.0599869 -2.59016 0.661337 -0.107289 0.742377 142 148 150 255 
-0.00674099 -0.059855 -2.59042 0.727187 -0.209352 0.653736 144 149 152 255 
-0.00632159 -0.0595303 -2.59107 0.722722 -0.223329 0.654062 148 153 156 255 
-0.00603883 -0.0595348 -2.59096 0.742836 -0.256319 0.618462 149 154 157 255 
-0.005655 -0.0595611 -2.59076 0.729507 -0.333721 0.597034 151 156 159 255 
-0.00531208 -0.059507 -2.59092 0.488658 -0.452823 0.745765 149 154 157 255 
-0.00493666 -0.0594889 -2.59122 0.669844 -0.360645 0.649033 151 156 159 255 
-0.00468652 -0.0594076 -2.59142 0.702283 0.133597 0.699251 144 150 153 255 
-0.00427596 -0.0593312 -2.59159 0.52887 -0.202487 0.824194 148 153 155 255 
-0.00400764 -0.0589888 -2.59177 0.506918 0.28233 0.814447 152 157 159 255 
-0.00308145 -0.0586867 -2.59225 0.626325 -0.0344609 0.7788 159 163 167 255 
-0.00308145 -0.0586867 -2.59225 0.626325 -0.0344609 0.7788 160 164 167 255 
-0.00305802 -0.0586563 -2.59233 0.255597 0.206303 0.944515 155 160 163 255 
-0.00281371 -0.0586708 -2.59275 0.101999 0.3032 0.947453 160 165 167 255 
-0.00183902 -0.05843 -2.5928 0.63762 -0.161242 0.753287 151 157 160 255 
-0.00184442 -0.0584611 -2.59276 0.686942 -0.177377 0.704732 153 159 161 255 
-0.00204366 -0.0584014 -2.59304 0.692203 -0.218023 0.687983 155 161 164 255 
-0.00218251 -0.0584903 -2.59281 0.508182 -0.469087 0.722294 151 157 159 255 
-0.000337305 -0.0580494 -2.59347 0.593821 0.252632 0.763907 146 151 154 255 
0.000190111 -0.0582993 -2.59349 0.62727 0.243646 0.739709 147 152 155 255 
0.000376721 -0.057941 -2.59378 0.57073 0.316162 0.757832 148 153 157 255 
0.00085118 -0.0578192 -2.59407 -0.126119 0.133224 0.983029 154 158 161 255 
0.000752746 -0.0583695 -2.59324 0.673971 0.32526 0.663301 147 152 155 255 
0.0013556 -0.0577929 -2.59456 -0.623497 -0.00271656 0.781821 152 156 159 255 
0.00156807 -0.0578681 -2.59401 0.151003 0.394406 0.906445 154 158 161 255 
0.00243583 -0.0578238 -2.59446 0.384574 0.32599 0.863616 153 157 160 255 
0.00301262 -0.057606 -2.59495 -0.246201 -0.113226 0.962582 156 161 166 255 
0.00345113 -0.0576122 -2.59488 -0.685645 -0.319816 0.653918 148 154 159 255 
0.00380545 -0.0577307 -2.59455 -0.682793 -0.240959 0.689733 118 116 116 255 
0.00464964 -0.0576018 -2.5943 0.205083 -0.567432 0.797472 149 131 128 255 
0.00491018 -0.0575353 -2.59433 0.088917 -0.406227 0.909436 140 124 121 255 
0.00493452 -0.0576942 -2.59449 -0.120708 -0.146996 0.981744 152 136 133 255 
0.00525999 -0.0574239 -2.59468 0.536205 -0.0274747 0.843641 103 90 88 255 
0.00622231 -0.0570824 -2.59522 0.314972 0.282698 0.906021 103 94 74 255 
0.00672033 -0.0571408 -2.59527 0.310584 0.306635 0.899729 86 76 61 255 
0.00715016 -0.0572714 -2.59513 0.386716 0.345774 0.854921 74 65 59 255 
0.00772548 -0.0574107 -2.59502 0.338103 -0.199773 0.919661 67 62 63 255 
0.00791925 -0.0570731 -2.5949 0.213608 -0.410655 0.886417 142 125 104 255 
0.00832748 -0.057101 -2.59497 0.485409 -0.10832 0.867551 110 100 92 255 
0.00863793 -0.0570369 -2.59544 0.659985 -0.33406 0.672921 112 111 114 255 
0.00920121 -0.0571005 -2.59536 0.371309 -0.602962 0.706093 134 140 144 255 
0.00969696 -0.0567444 -2.59554 -0.743646 0.107075 0.659944 140 147 154 255 
0.0100045 -0.0570693 -2.59525 -0.423617 0.179949 0.887788 152 155 159 255 
0.0104796 -0.0567789 -2.59522 -0.28099 0.026821 0.959336 147 149 157 255 
0.0106275 -0.0572633 -2.59496 -0.0992812 0.363063 0.92646 170 161 156 255 
0.0124429 -0.05706 -2.59512 -0.0805793 0.319236 0.944243 141 145 145 255 
0.0129821 -0.0570667 -2.59506 0.0545898 0.273407 0.960348 192 194 195 255 
0.0137359 -0.0566551 -2.59505 -0.0442332 0.370045 0.92796 200 200 198 255 
0.0146444 -0.0566962 -2.59489 0.308816 -0.0524628 0.949674 203 203 203 255 
0.0149663 -0.056805 -2.59488 0.317732 -0.0811644 0.9447 203 204 203 255 
0.0155796 -0.0569377 -2.59507 0.0820146 -0.128292 0.988339 200 200 200 255 
0.015697 -0.0566083 -2.59502 -0.327336 0.163555 0.930646 205 205 205 255 
0.0160796 -0.0567321 -2.59469 -0.226482 0.325366 0.918065 204 204 204 255 
0.0176766 -0.057039 -2.59432 -0.17903 0.416074 0.891533 206 207 206 255 
0.0182981 -0.0568899 -2.59454 -0.089791 0.0563511 0.994365 207 208 207 255 
0.0188321 -0.056842 -2.59457 -0.0156967 0.0519243 0.998528 210 211 210 255 
0.0189738 -0.056922 -2.59379 -0.276593 0.489825 0.826781 208 209 209 255 
0.0194617 -0.0568532 -2.59375 -0.479244 -0.0571595 0.875818 205 206 206 255 
0.0199189 -0.0568808 -2.59371 0.00525314 0.159112 0.987247 210 210 210 255 
0.0203638 -0.0569002 -2.59363 -0.0917422 0.0970057 0.991047 212 213 213 255 
0.0207343 -0.056928 -2.59339 -0.656263 -0.396308 0.642074 213 214 213 255 
0.0212427 -0.0566365 -2.59373 -0.155374 -0.789532 0.593716 215 216 215 255 
0.0215213 -0.0569753 -2.59353 -0.556352 -0.136504 0.819658 214 215 215 255 
0.0221001 -0.0568351 -2.5932 -0.896841 -0.370234 0.24208 213 214 213 255 
0.024539 -0.0571701 -2.59202 -0.373712 0.0398839 0.926687 214 214 211 255 
0.0249642 -0.0571742 -2.59184 -0.534944 -0.113522 0.837226 213 212 210 255 
0.0257002 -0.0574869 -2.59143 -0.365257 0.524012 0.769414 212 210 208 255 
0.026439 -0.057144 -2.59146 -0.745026 -0.312748 0.589174 188 188 187 255 
0.0271349 -0.0580584 -2.58936 -0.554254 -0.0161554 0.832191 194 193 189 255 
0.0272155 -0.0577789 -2.59051 0.375217 0.271164 0.886388 200 199 194 255 
0.0282599 -0.0578686 -2.58965 -0.198338 -0.285968 0.937488 207 208 197 255 
0.0283914 -0.0577001 -2.58978 0.0588907 -0.96378 0.260116 208 208 201 255 
0.0284436 -0.0580357 -2.58913 -0.276534 -0.394286 0.876395 198 199 186 255 
0.0288461 -0.0580308 -2.58902 -0.577601 -0.259113 0.774105 174 175 160 255 
0.0292028 -0.0580151 -2.58875 -0.431488 -0.549486 0.71546 166 167 151 255 
0.0293948 -0.0580161 -2.58881 0.22911 0.193084 0.954058 147 147 126 255 
0.0295924 -0.0580348 -2.58856 -0.542536 -0.325623 0.774354 131 133 116 255 
0.0303311 -0.0580781 -2.58812 -0.287868 -0.71719 0.634642 84 87 78 255 
0.031945 -0.0584818 -2.58755 -0.613168 -0.0255831 0.789538 204 206 213 255 
0.032716 -0.0583837 -2.58711 -0.469408 -0.118642 0.874974 220 221 224 255 
0.0326564 -0.0587114 -2.58665 -0.553018 0.360949 0.750924 227 229 227 255 
0.0329346 -0.0583112 -2.58696 -0.562039 0.497351 0.660874 221 223 226 255 
0.0332503 -0.0586345 -2.58622 -0.18404 0.51379 0.837943 232 233 232 255 
0.033257 -0.05863 -2.58623 -0.184143 0.514423 0.837532 232 233 232 255 
0.0336689 -0.0586759 -2.58607 0.0298142 0.273623 0.961375 234 234 234 255 
0.0339201 -0.0588479 -2.58568 0.20578 0.317397 0.925696 234 235 235 255 
0.0339013 -0.0587523 -2.58551 0.273652 0.304187 0.912461 234 235 233 255 
0.0356044 -0.0595469 -2.58346 -0.154818 0.560956 0.81324 232 233 233 255 
0.0355865 -0.0595582 -2.58343 -0.155794 0.561454 0.81271 220 221 222 255 
-0.0143182 -0.062824 -2.58365 0.590999 -0.0658293 0.803982 136 141 143 255 
-0.0137456 -0.0628553 -2.5841 0.745138 -0.0220427 0.666546 140 144 146 255 
-0.0134266 -0.0624322 -2.58442 0.693058 0.241736 0.679142 134 140 143 255 
-0.0130795 -0.0625995 -2.58471 0.513539 0.030234 0.857534 138 143 145 255 
-0.0124762 -0.0621652 -2.58498 -0.0536316 -0.300088 0.952403 145 149 152 255 
-0.0115772 -0.0614535 -2.58682 0.693744 -0.427635 0.579524 145 150 152 255 
-0.0115809 -0.0618366 -2.58616 0.704432 -0.321105 0.632982 147 151 153 255 
-0.0110379 -0.061319 -2.58705 0.800936 -0.30308 0.516376 137 142 145 255 
-0.0111433 -0.0617011 -2.58667 0.549813 0.286018 0.784792 146 151 153 255 
-0.0107353 -0.0613917 -2.58702 0.680163 -0.463148 0.568219 146 151 153 255 
-0.0102167 -0.0611873 -2.58787 0.818773 -0.226959 0.527353 135 141 143 255 
-0.00997424 -0.0614344 -2.5875 0.802022 -0.16952 0.572733 133 138 141 255 
-0.00989669 -0.061217 -2.58776 0.799309 -0.270886 0.5364 132 137 140 255 
-0.00935424 -0.0611162 -2.58812 0.604856 0.326427 0.726357 129 134 137 255 
-0.0087338 -0.0612168 -2.58787 0.721786 0.135842 0.678655 134 139 142 255 
-0.00881049 -0.0608662 -2.58808 0.734497 0.101098 0.67104 131 136 139 255 
-0.00836644 -0.0606885 -2.58874 0.671977 0.121351 0.730562 140 145 149 255 
-0.0074321 -0.0600658 -2.59018 0.711612 -0.123976 0.691548 146 152 154 255 
-0.00729658 -0.0602799 -2.58981 0.73237 -0.164806 0.660662 146 152 155 255 
-0.00687252 -0.0604277 -2.58988 0.662973 0.0205606 0.748361 144 148 151 255 
-0.00659371 -0.0600909 -2.59046 0.619151 -0.0944035 0.779577 144 149 152 255 
-0.00619291 -0.0600379 -2.59098 0.766407 -0.188225 0.614159 143 148 151 255 
-0.00615236 -0.0600168 -2.59088 0.49411 -0.173135 0.851986 145 150 152 255 
-0.00549196 -0.0598764 -2.59129 0.497725 -0.407462 0.765666 146 152 154 255 
-0.00392485 -0.0595984 -2.59152 0.529725 0.16444 0.832076 153 158 161 255 
-0.00335007 -0.059383 -2.59175 0.65178 -0.153455 0.742721 154 159 162 255 
-0.00330508 -0.0591188 -2.59209 0.370961 0.369044 0.85217 154 159 162 255 
-0.00238379 -0.059211 -2.59237 0.611409 -0.543687 0.574964 159 164 167 255 
-0.00185117 -0.0587905 -2.59317 0.647145 -0.0693302 0.759208 153 159 162 255 
-0.00157164 -0.0587616 -2.5931 0.687565 -0.329649 0.646982 155 161 164 255 
-8.26006e-05 -0.0586761 -2.59336 0.323472 0.0737296 0.943361 154 158 161 255 
0.00124162 -0.0584065 -2.59373 0.326521 -0.0423933 0.944239 160 164 166 255 
0.00195562 -0.058252 -2.59406 -0.711522 0.266305 0.650244 152 156 159 255 
0.00251243 -0.0582208 -2.59452 0.546936 0.302311 0.780685 150 155 158 255 
0.00320132 -0.0580128 -2.59496 -0.468105 -0.00479285 0.88366 156 161 165 255 
0.00359773 -0.0580808 -2.59477 -0.572735 -0.246852 0.78169 152 158 164 255 
0.00398397 -0.0581246 -2.59452 -0.464354 -0.19619 0.863646 120 119 121 255 
0.00439675 -0.0581068 -2.59435 -0.384906 -0.0392475 0.922121 141 128 118 255 
0.00515484 -0.0580683 -2.59451 0.154674 0.24771 0.956408 154 138 129 255 
0.00599407 -0.0575867 -2.595 0.446195 -0.0397604 0.894052 97 96 109 255 
0.00650332 -0.0575856 -2.5951 0.258791 0.27621 0.9256 92 93 112 255 
0.007035 -0.0576092 -2.59513 0.125205 0.267443 0.955405 90 92 109 255 
0.00810412 -0.057467 -2.59504 0.395776 -0.228371 0.889499 87 87 93 255 
0.00847885 -0.0575252 -2.59509 0.434296 -0.215056 0.874722 125 130 138 255 
0.00883275 -0.057606 -2.5951 0.465555 -0.284419 0.838072 144 151 158 255 
0.00914863 -0.0577206 -2.59505 0.144462 -0.139205 0.97967 145 148 152 255 
0.0101407 -0.0576598 -2.59482 0.0575342 0.307692 0.949745 180 174 166 255 
0.0106434 -0.0576859 -2.5948 -0.21191 0.492973 0.843844 160 144 134 255 
0.0116695 -0.0572189 -2.5951 0.429066 0.159861 0.889014 155 142 133 255 
0.012739 -0.0574964 -2.59495 0.0781367 0.271048 0.959389 186 190 192 255 
0.0132873 -0.0574825 -2.59502 0.0306984 0.316601 0.948062 202 203 203 255 
0.0133147 -0.0572246 -2.59487 -0.136327 0.110597 0.984471 194 194 194 255 
0.0138332 -0.0572514 -2.59484 -0.31683 -0.00171821 0.948481 197 198 197 255 
0.0142804 -0.0573565 -2.59451 -0.0541645 0.373017 0.926242 200 200 200 255 
0.0148345 -0.057139 -2.59497 0.278367 -0.225038 0.93374 203 204 204 255 
0.0152998 -0.0571064 -2.5952 0.151197 -0.379969 0.912559 202 202 201 255 
0.0158888 -0.057099 -2.59474 -0.138538 0.260673 0.955435 202 203 202 255 
0.0164548 -0.0572528 -2.59492 -0.315605 0.281181 0.906273 202 203 203 255 
0.0168825 -0.0570464 -2.59454 -0.0317132 -0.239696 0.97033 200 201 200 255 
0.0173582 -0.0573401 -2.5945 0.144903 0.241624 0.95949 210 211 211 255 
0.0183503 -0.0574152 -2.59433 -0.0757427 0.287686 0.954725 209 210 210 255 
0.0192602 -0.0572674 -2.59387 -0.0251164 -0.147766 0.988703 209 210 210 255 
0.0197998 -0.0572119 -2.59378 -0.124513 0.136756 0.982748 211 212 212 255 
0.0201865 -0.057264 -2.59368 0.0406295 0.247407 0.968059 211 212 212 255 
0.0210534 -0.0574213 -2.59344 0.0114898 0.285981 0.958166 212 213 213 255 
0.0230837 -0.0575491 -2.59255 -0.395731 0.132465 0.908763 217 217 216 255 
0.0234402 -0.057605 -2.59226 -0.429562 0.105016 0.89691 214 214 212 255 
0.0259731 -0.058058 -2.59088 -0.117869 0.602959 0.789017 194 193 191 255 
0.0268381 -0.0579314 -2.59047 -0.20856 0.629036 0.748877 194 192 186 255 
0.0270108 -0.0581894 -2.58992 -0.564162 -0.161695 0.809677 198 197 185 255 
0.027887 -0.058357 -2.58942 0.0694361 -0.560686 0.825112 149 151 132 255 
0.0278686 -0.0583032 -2.58955 -0.0789079 -0.750273 0.656402 156 158 139 255 
0.0289658 -0.0585583 -2.58871 -0.542088 -0.470939 0.695958 71 71 71 255 
0.0297074 -0.0584228 -2.58875 -0.559913 0.016209 0.828393 72 74 81 255 
0.0305221 -0.0585241 -2.5889 -0.508255 0.463125 0.72608 142 146 165 255 
0.0303508 -0.0583908 -2.58845 -0.299118 -0.644979 0.703228 87 91 105 255 
0.0307889 -0.0587106 -2.58831 -0.392502 0.430075 0.813005 188 191 202 255 
0.0309836 -0.0584473 -2.5882 -0.691203 0.281993 0.665371 135 138 155 255 
0.0312587 -0.0587184 -2.58793 -0.598626 -0.000471104 0.801029 210 213 219 255 
0.0321325 -0.0587974 -2.58705 -0.536875 0.0599635 0.841528 223 225 224 255 
0.0325966 -0.0591145 -2.58579 -0.514384 0.480982 0.709976 230 230 230 255 
0.0333819 -0.0588253 -2.58654 0.173831 0.438853 0.881585 236 236 235 255 
0.0340796 -0.0590406 -2.58614 0.2097 0.316097 0.925261 227 228 228 255 
0.0338485 -0.0590484 -2.5859 0.539069 0.220042 0.813011 249 249 250 255 
0.0360089 -0.0601792 -2.583 0.308506 0.22612 0.923955 181 185 186 255 
-0.0140147 -0.0631586 -2.58373 0.717692 0.210879 0.663663 133 138 140 255 
-0.0134169 -0.0629345 -2.58423 0.625284 0.33617 0.704279 130 135 138 255 
-0.0126565 -0.0624624 -2.58517 0.176362 -0.158553 0.971472 142 147 149 255 
-0.0128923 -0.06292 -2.58484 0.629619 -0.136886 0.76475 141 146 147 255 
-0.0122577 -0.0624385 -2.58521 0.44155 0.165109 0.881914 145 149 151 255 
-0.0117876 -0.0622847 -2.58585 0.431466 0.11212 0.895135 144 149 151 255 
-0.0113362 -0.0621649 -2.58638 0.327342 0.0158614 0.944773 145 150 152 255 
-0.0107059 -0.0618404 -2.58708 0.789633 -0.164932 0.590997 149 154 157 255 
-0.00953886 -0.0615366 -2.58784 0.722578 0.132379 0.678496 131 136 139 255 
-0.00829881 -0.0613075 -2.58852 0.739641 0.0341808 0.672133 135 141 144 255 
-0.00793485 -0.0607921 -2.58934 0.618959 0.0552556 0.783477 141 148 150 255 
-0.00666263 -0.0604069 -2.59006 0.66789 -0.222662 0.710173 145 150 153 255 
-0.00659879 -0.0608232 -2.58983 0.561446 0.285302 0.776776 144 150 152 255 
-0.00589638 -0.0605175 -2.5905 0.460295 -0.37133 0.806376 147 153 155 255 
-0.00596194 -0.0604987 -2.5906 0.668215 0.0162488 0.743791 149 154 157 255 
-0.00455134 -0.0599209 -2.59131 0.143849 0.178908 0.973293 149 155 157 255 
-0.00414333 -0.0598765 -2.5915 0.191737 0.0111487 0.981383 150 156 158 255 
-0.00372117 -0.0600591 -2.59165 0.270815 0.293182 0.916899 148 154 156 255 
-0.00345078 -0.0597067 -2.59186 0.532393 0.169199 0.829415 154 159 162 255 
-0.00293133 -0.059648 -2.59225 0.441608 0.233107 0.866397 153 158 161 255 
-0.00253274 -0.0597861 -2.59219 0.49285 0.286059 0.821747 155 160 163 255 
-0.00196409 -0.0595015 -2.59218 0.561591 0.320613 0.762773 147 153 156 255 
-0.00206055 -0.059571 -2.59249 0.516916 0.303568 0.800403 154 159 162 255 
-0.00102574 -0.0591258 -2.59304 0.411623 -0.102158 0.905611 158 162 165 255 
-0.000628785 -0.0591481 -2.59317 0.412366 0.276201 0.86814 154 158 161 255 
-0.000485381 -0.0590339 -2.59348 0.652837 -0.00668642 0.757469 158 162 165 255 
0.000947371 -0.0586727 -2.59392 0.503151 0.195715 0.841745 149 153 156 255 
0.00131462 -0.0589536 -2.59413 0.55084 -0.0167892 0.834442 155 159 162 255 
0.00139747 -0.0587248 -2.59372 0.586301 0.112971 0.802177 156 160 163 255 
0.00228336 -0.0586912 -2.59425 0.294418 0.428169 0.854394 152 156 159 255 
0.0018923 -0.0586586 -2.59409 0.543071 0.0381161 0.838821 148 152 155 255 
0.00279525 -0.0586896 -2.59437 0.214422 0.262466 0.940816 155 159 161 255 
0.00340052 -0.0584659 -2.59489 -0.226155 -0.0614751 0.97215 155 160 164 255 
0.00378705 -0.0585116 -2.59464 -0.281061 -0.204352 0.937681 156 160 167 255 
0.00420342 -0.0585117 -2.5945 -0.242792 -0.187441 0.951797 130 130 137 255 
0.0046262 -0.0585523 -2.59437 -0.435447 -0.637695 0.635399 107 99 96 255 
0.00542296 -0.05825 -2.59444 -0.127939 0.205439 0.970271 153 139 129 255 
0.00589945 -0.0581974 -2.59463 0.121273 -0.170881 0.9778 149 139 136 255 
0.00617897 -0.0581224 -2.59469 0.180838 0.235679 0.954857 146 141 142 255 
0.00679028 -0.0580481 -2.59497 0.155439 0.315581 0.936081 146 147 147 255 
0.00729756 -0.0580707 -2.59498 0.1189 0.282655 0.951824 143 145 150 255 
0.00780424 -0.0581439 -2.59495 0.238477 0.371176 0.897417 145 148 153 255 
0.00780424 -0.0581439 -2.59495 0.238477 0.371176 0.897417 145 148 153 255 
0.00780424 -0.0581439 -2.59495 0.238477 0.371176 0.897417 145 148 153 255 
0.0083078 -0.0578454 -2.59528 0.403505 -0.102893 0.909174 140 147 157 255 
0.00847424 -0.0581189 -2.5948 0.181127 0.501953 0.845716 156 161 165 255 
0.00849054 -0.0581125 -2.5948 0.191764 0.502278 0.843175 156 162 166 255 
0.00887517 -0.0581278 -2.59503 0.345224 0.386238 0.85536 167 167 164 255 
0.00932303 -0.0581357 -2.59504 0.387603 -0.177505 0.904575 162 156 150 255 
0.00949569 -0.0578109 -2.59488 0.104024 0.264994 0.958623 159 158 157 255 
0.0100528 -0.0579801 -2.59482 0.446997 -0.381342 0.80918 165 154 142 255 
0.0105192 -0.0580013 -2.59497 0.0833646 0.28267 0.955588 152 135 125 255 
0.0106863 -0.0582231 -2.59459 0.405233 -0.459298 0.790463 151 134 124 255 
0.0113526 -0.0576995 -2.59489 0.36255 0.110654 0.925372 156 141 131 255 
0.0111619 -0.0581178 -2.59483 0.300229 0.0591061 0.952034 146 133 125 255 
0.0117055 -0.0580517 -2.59496 0.438275 0.0516186 0.897358 122 121 122 255 
0.0120031 -0.0575897 -2.59512 -0.0702681 0.302726 0.950484 128 127 129 255 
0.0126628 -0.0577791 -2.59519 0.327374 0.308735 0.893034 187 191 194 255 
0.0130585 -0.0578997 -2.59495 0.0828951 0.22308 0.971269 201 202 203 255 
0.0135442 -0.0579274 -2.59492 0.0700717 0.281182 0.957093 202 203 202 255 
0.0136874 -0.0575993 -2.59485 -0.00725532 0.347667 0.93759 202 202 202 255 
0.0141834 -0.0576496 -2.59476 -0.142958 0.228283 0.963042 201 201 201 255 
0.0146072 -0.0577127 -2.59454 -0.0539262 0.364849 0.929504 203 204 203 255 
0.0151406 -0.0577915 -2.59478 0.0348173 0.186177 0.981899 205 205 204 255 
0.0148679 -0.0575133 -2.59498 0.0560569 0.507883 0.8596 206 207 207 255 
0.0157288 -0.0574482 -2.5948 -0.0152363 0.345692 0.938224 205 206 206 255 
0.0171069 -0.0577835 -2.59436 0.0917605 0.192847 0.976929 207 208 208 255 
0.0174864 -0.0579111 -2.59408 0.117744 0.201787 0.972326 207 208 207 255 
0.0181387 -0.0578132 -2.59428 -0.0872374 0.309922 0.946751 209 209 209 255 
0.0188086 -0.05782 -2.59348 0.376325 0.253117 0.891241 226 226 226 255 
0.0189927 -0.0576885 -2.5938 0.213012 0.37756 0.901151 216 216 217 255 
0.0199705 -0.0576664 -2.59364 0.000845999 0.257661 0.966235 211 212 212 255 
0.0204013 -0.0577432 -2.59352 0.0127515 0.291962 0.956345 213 214 214 255 
0.0208392 -0.0578139 -2.59342 -0.124637 0.290628 0.948684 213 214 214 255 
0.0216489 -0.0578755 -2.59322 -0.0933024 0.127691 0.987416 216 216 216 255 
0.0227692 -0.0580354 -2.59257 -0.429559 0.129024 0.893774 218 218 217 255 
0.0232556 -0.0579877 -2.59238 -0.463505 0.234024 0.854632 216 216 215 255 
0.0253512 -0.0581303 -2.59151 -0.458825 0.595318 0.659603 218 217 216 255 
0.0251457 -0.057928 -2.59201 0.337921 0.17946 0.923907 217 217 216 255 
0.0253206 -0.058156 -2.59143 -0.295111 0.495855 0.816724 216 215 213 255 
0.025692 -0.0585857 -2.59069 -0.283028 0.0655905 0.956866 201 198 194 255 
0.025948 -0.0585505 -2.5903 -0.274642 -0.600448 0.751022 192 190 183 255 
0.0272273 -0.0585538 -2.58974 -0.267817 -0.789905 0.551656 125 125 107 255 
0.0277714 -0.0588218 -2.58938 -0.088384 -0.536192 0.839456 71 73 70 255 
0.0281239 -0.0587393 -2.58955 -0.256558 -0.200559 0.945492 71 72 75 255 
0.0285809 -0.0587023 -2.58902 0.00476977 0.0942859 0.995534 68 69 72 255 
0.0297043 -0.0586542 -2.58908 -0.535033 0.512349 0.671742 113 115 133 255 
0.0299709 -0.0590015 -2.58825 -0.422587 -0.46358 0.77879 172 175 188 255 
0.030459 -0.0591286 -2.58838 -0.575299 0.155064 0.80311 221 223 224 255 
0.0308445 -0.0589868 -2.58811 -0.579346 0.0165178 0.814914 221 223 225 255 
0.0307071 -0.0593575 -2.58739 -0.62638 0.493523 0.603393 224 225 225 255 
0.031166 -0.0593333 -2.587 -0.702802 -0.139936 0.697486 226 227 226 255 
0.0328498 -0.0591548 -2.58683 0.227285 0.214099 0.950002 233 233 232 255 
0.0325717 -0.0599455 -2.58471 0.419553 0.349375 0.837802 250 250 249 255 
0.0354376 -0.0604659 -2.58317 -0.428225 0.609518 0.667166 231 232 231 255 
-0.0126719 -0.0632732 -2.58487 0.773583 0.0429566 0.632237 132 137 140 255 
-0.0123088 -0.0630026 -2.58515 0.8308 0.115316 0.544495 126 132 134 255 
